-0.189892 -0.050000 0.025806 
-0.189850 -0.050000 0.035806 
-0.189807 -0.050000 0.045806 
-0.189765 -0.050000 0.055806 
-0.190274 -0.040000 -0.064193 
-0.190232 -0.040000 -0.054193 
-0.190189 -0.040000 -0.044193 
-0.190147 -0.040000 -0.034193 
-0.190105 -0.040000 -0.024193 
-0.190062 -0.040000 -0.014193 
-0.190020 -0.040000 -0.004193 
-0.189977 -0.040000 0.005807 
-0.189935 -0.040000 0.015806 
-0.189892 -0.040000 0.025806 
-0.189850 -0.040000 0.035806 
-0.189807 -0.040000 0.045806 
-0.189765 -0.040000 0.055806 
-0.189722 -0.040000 0.065806 
-0.190274 -0.030000 -0.064193 
-0.190232 -0.030000 -0.054193 
-0.190189 -0.030000 -0.044193 
-0.190147 -0.030000 -0.034193 
-0.190105 -0.030000 -0.024193 
-0.190062 -0.030000 -0.014193 
-0.190020 -0.030000 -0.004193 
-0.189977 -0.030000 0.005807 
-0.189935 -0.030000 0.015806 
-0.189892 -0.030000 0.025806 
-0.189850 -0.030000 0.035806 
-0.189807 -0.030000 0.045806 
-0.189765 -0.030000 0.055806 
-0.189722 -0.030000 0.065806 
-0.190274 -0.020000 -0.064193 
-0.190232 -0.020000 -0.054193 
-0.190189 -0.020000 -0.044193 
-0.190147 -0.020000 -0.034193 
-0.190105 -0.020000 -0.024193 
-0.190062 -0.020000 -0.014193 
-0.190020 -0.020000 -0.004193 
-0.189977 -0.020000 0.005807 
-0.189935 -0.020000 0.015806 
-0.189892 -0.020000 0.025806 
-0.189850 -0.020000 0.035806 
-0.189807 -0.020000 0.045806 
-0.189765 -0.020000 0.055806 
-0.189722 -0.020000 0.065806 
-0.190274 -0.010000 -0.064193 
-0.190232 -0.010000 -0.054193 
-0.190189 -0.010000 -0.044193 
-0.190147 -0.010000 -0.034193 
-0.190105 -0.010000 -0.024193 
-0.190062 -0.010000 -0.014193 
-0.190020 -0.010000 -0.004193 
-0.189977 -0.010000 0.005807 
-0.189935 -0.010000 0.015806 
-0.189892 -0.010000 0.025806 
-0.189850 -0.010000 0.035806 
-0.189807 -0.010000 0.045806 
-0.189765 -0.010000 0.055806 
-0.189722 -0.010000 0.065806 
-0.190232 -0.000000 -0.054193 
-0.190189 -0.000000 -0.044193 
-0.190147 -0.000000 -0.034193 
-0.190105 -0.000000 -0.024193 
-0.190062 -0.000000 -0.014193 
-0.190020 -0.000000 -0.004193 
-0.189977 -0.000000 0.005807 
-0.189935 -0.000000 0.015806 
-0.189892 -0.000000 0.025806 
-0.189850 -0.000000 0.035806 
-0.189807 -0.000000 0.045806 
-0.189765 -0.000000 0.055806 
-0.190232 0.010000 -0.054193 
-0.190189 0.010000 -0.044193 
-0.190147 0.010000 -0.034193 
-0.190105 0.010000 -0.024193 
-0.190062 0.010000 -0.014193 
-0.190020 0.010000 -0.004193 
-0.189977 0.010000 0.005807 
-0.189935 0.010000 0.015806 
-0.189892 0.010000 0.025806 
-0.189850 0.010000 0.035806 
-0.189807 0.010000 0.045806 
-0.189765 0.010000 0.055806 
-0.190189 0.020000 -0.044193 
-0.190147 0.020000 -0.034193 
-0.190105 0.020000 -0.024193 
-0.190062 0.020000 -0.014193 
-0.190020 0.020000 -0.004193 
-0.189977 0.020000 0.005807 
-0.189935 0.020000 0.015806 
-0.189892 0.020000 0.025806 
-0.189850 0.020000 0.035806 
-0.189807 0.020000 0.045806 
-0.190105 0.030000 -0.024193 
-0.190062 0.030000 -0.014193 
-0.190020 0.030000 -0.004193 
-0.189977 0.030000 0.005807 
-0.189935 0.030000 0.015806 
-0.189892 0.030000 0.025806 
-0.200104 -0.100000 -0.024151 
-0.200062 -0.100000 -0.014151 
-0.200019 -0.100000 -0.004151 
-0.199977 -0.100000 0.005849 
-0.199935 -0.100000 0.015849 
-0.199892 -0.100000 0.025849 
-0.200147 -0.090000 -0.034151 
-0.200104 -0.090000 -0.024151 
-0.200062 -0.090000 -0.014151 
-0.200019 -0.090000 -0.004151 
-0.199977 -0.090000 0.005849 
-0.199935 -0.090000 0.015849 
-0.199892 -0.090000 0.025849 
-0.199850 -0.090000 0.035849 
-0.200189 -0.080000 -0.044150 
-0.200147 -0.080000 -0.034151 
-0.200104 -0.080000 -0.024151 
-0.200062 -0.080000 -0.014151 
-0.200019 -0.080000 -0.004151 
-0.199977 -0.080000 0.005849 
-0.199935 -0.080000 0.015849 
-0.199892 -0.080000 0.025849 
-0.199850 -0.080000 0.035849 
-0.199807 -0.080000 0.045849 
-0.200189 -0.070000 -0.044150 
-0.200147 -0.070000 -0.034151 
-0.200104 -0.070000 -0.024151 
-0.200062 -0.070000 -0.014151 
-0.200019 -0.070000 -0.004151 
-0.199977 -0.070000 0.005849 
-0.199935 -0.070000 0.015849 
-0.199892 -0.070000 0.025849 
-0.199850 -0.070000 0.035849 
-0.199807 -0.070000 0.045849 
-0.200232 -0.060000 -0.054150 
-0.200189 -0.060000 -0.044150 
-0.200147 -0.060000 -0.034151 
-0.200104 -0.060000 -0.024151 
-0.200062 -0.060000 -0.014151 
-0.200019 -0.060000 -0.004151 
-0.199977 -0.060000 0.005849 
-0.199935 -0.060000 0.015849 
-0.199892 -0.060000 0.025849 
-0.199850 -0.060000 0.035849 
-0.199807 -0.060000 0.045849 
-0.199765 -0.060000 0.055849 
-0.200232 -0.050000 -0.054150 
-0.200189 -0.050000 -0.044150 
-0.200147 -0.050000 -0.034151 
-0.200104 -0.050000 -0.024151 
-0.200062 -0.050000 -0.014151 
-0.200019 -0.050000 -0.004151 
-0.199977 -0.050000 0.005849 
-0.199935 -0.050000 0.015849 
-0.199892 -0.050000 0.025849 
-0.199850 -0.050000 0.035849 
-0.199807 -0.050000 0.045849 
-0.199765 -0.050000 0.055849 
-0.200274 -0.040000 -0.064150 
-0.200232 -0.040000 -0.054150 
-0.200189 -0.040000 -0.044150 
-0.200147 -0.040000 -0.034151 
-0.200104 -0.040000 -0.024151 
-0.200062 -0.040000 -0.014151 
-0.200019 -0.040000 -0.004151 
-0.199977 -0.040000 0.005849 
-0.199935 -0.040000 0.015849 
-0.199892 -0.040000 0.025849 
-0.199850 -0.040000 0.035849 
-0.199807 -0.040000 0.045849 
-0.199765 -0.040000 0.055849 
-0.199722 -0.040000 0.065849 
-0.200274 -0.030000 -0.064150 
-0.200232 -0.030000 -0.054150 
-0.200189 -0.030000 -0.044150 
-0.200147 -0.030000 -0.034151 
-0.200104 -0.030000 -0.024151 
-0.200062 -0.030000 -0.014151 
-0.200019 -0.030000 -0.004151 
-0.199977 -0.030000 0.005849 
-0.199935 -0.030000 0.015849 
-0.199892 -0.030000 0.025849 
-0.199850 -0.030000 0.035849 
-0.199807 -0.030000 0.045849 
-0.199765 -0.030000 0.055849 
-0.199722 -0.030000 0.065849 
-0.200274 -0.020000 -0.064150 
-0.200232 -0.020000 -0.054150 
-0.200189 -0.020000 -0.044150 
-0.200147 -0.020000 -0.034151 
-0.200104 -0.020000 -0.024151 
-0.200062 -0.020000 -0.014151 
-0.200019 -0.020000 -0.004151 
-0.199977 -0.020000 0.005849 
-0.199935 -0.020000 0.015849 
-0.199892 -0.020000 0.025849 
-0.199850 -0.020000 0.035849 
-0.199807 -0.020000 0.045849 
-0.199765 -0.020000 0.055849 
-0.199722 -0.020000 0.065849 
-0.200274 -0.010000 -0.064150 
-0.200232 -0.010000 -0.054150 
-0.200189 -0.010000 -0.044150 
-0.200147 -0.010000 -0.034151 
-0.200104 -0.010000 -0.024151 
-0.200062 -0.010000 -0.014151 
-0.200019 -0.010000 -0.004151 
-0.199977 -0.010000 0.005849 
-0.199935 -0.010000 0.015849 
-0.199892 -0.010000 0.025849 
-0.199850 -0.010000 0.035849 
-0.199807 -0.010000 0.045849 
-0.199765 -0.010000 0.055849 
-0.199722 -0.010000 0.065849 
-0.200232 -0.000000 -0.054150 
-0.200189 -0.000000 -0.044150 
-0.200147 -0.000000 -0.034151 
-0.200104 -0.000000 -0.024151 
-0.200062 -0.000000 -0.014151 
-0.200019 -0.000000 -0.004151 
-0.199977 -0.000000 0.005849 
-0.199935 -0.000000 0.015849 
-0.199892 -0.000000 0.025849 
-0.199850 -0.000000 0.035849 
-0.199807 -0.000000 0.045849 
-0.199765 -0.000000 0.055849 
-0.200189 0.010000 -0.044150 
-0.200147 0.010000 -0.034151 
-0.200104 0.010000 -0.024151 
-0.200062 0.010000 -0.014151 
-0.200019 0.010000 -0.004151 
-0.199977 0.010000 0.005849 
-0.199935 0.010000 0.015849 
-0.199892 0.010000 0.025849 
-0.199850 0.010000 0.035849 
-0.199807 0.010000 0.045849 
-0.200147 0.020000 -0.034151 
-0.200104 0.020000 -0.024151 
-0.200062 0.020000 -0.014151 
-0.200019 0.020000 -0.004151 
-0.199977 0.020000 0.005849 
-0.199935 0.020000 0.015849 
-0.199892 0.020000 0.025849 
-0.199850 0.020000 0.035849 
-0.200062 0.030000 -0.014151 
-0.200019 0.030000 -0.004151 
-0.199977 0.030000 0.005849 
-0.199935 0.030000 0.015849 
-0.210104 -0.100000 -0.024108 
-0.210062 -0.100000 -0.014108 
-0.210019 -0.100000 -0.004108 
-0.209977 -0.100000 0.005892 
-0.209934 -0.100000 0.015891 
-0.209892 -0.100000 0.025891 
-0.210147 -0.090000 -0.034108 
-0.210104 -0.090000 -0.024108 
-0.210062 -0.090000 -0.014108 
-0.210019 -0.090000 -0.004108 
-0.209977 -0.090000 0.005892 
-0.209934 -0.090000 0.015891 
-0.209892 -0.090000 0.025891 
-0.209849 -0.090000 0.035891 
-0.210189 -0.080000 -0.044108 
-0.210147 -0.080000 -0.034108 
-0.210104 -0.080000 -0.024108 
-0.210062 -0.080000 -0.014108 
-0.210019 -0.080000 -0.004108 
-0.209977 -0.080000 0.005892 
-0.209934 -0.080000 0.015891 
-0.209892 -0.080000 0.025891 
-0.209849 -0.080000 0.035891 
-0.209807 -0.080000 0.045891 
-0.210189 -0.070000 -0.044108 
-0.210147 -0.070000 -0.034108 
-0.210104 -0.070000 -0.024108 
-0.210062 -0.070000 -0.014108 
-0.210019 -0.070000 -0.004108 
-0.209977 -0.070000 0.005892 
-0.209934 -0.070000 0.015891 
-0.209892 -0.070000 0.025891 
-0.209849 -0.070000 0.035891 
-0.209807 -0.070000 0.045891 
-0.210232 -0.060000 -0.054108 
-0.210189 -0.060000 -0.044108 
-0.210147 -0.060000 -0.034108 
-0.210104 -0.060000 -0.024108 
-0.210062 -0.060000 -0.014108 
-0.210019 -0.060000 -0.004108 
-0.209977 -0.060000 0.005892 
-0.209934 -0.060000 0.015891 
-0.209892 -0.060000 0.025891 
-0.209849 -0.060000 0.035891 
-0.209807 -0.060000 0.045891 
-0.209765 -0.060000 0.055891 
-0.210232 -0.050000 -0.054108 
-0.210189 -0.050000 -0.044108 
-0.210147 -0.050000 -0.034108 
-0.210104 -0.050000 -0.024108 
-0.210062 -0.050000 -0.014108 
-0.210019 -0.050000 -0.004108 
-0.209977 -0.050000 0.005892 
-0.209934 -0.050000 0.015891 
-0.209892 -0.050000 0.025891 
-0.209849 -0.050000 0.035891 
-0.209807 -0.050000 0.045891 
-0.209765 -0.050000 0.055891 
-0.210274 -0.040000 -0.064108 
-0.210232 -0.040000 -0.054108 
-0.210189 -0.040000 -0.044108 
-0.210147 -0.040000 -0.034108 
-0.210104 -0.040000 -0.024108 
-0.210062 -0.040000 -0.014108 
-0.210019 -0.040000 -0.004108 
-0.209977 -0.040000 0.005892 
-0.209934 -0.040000 0.015891 
-0.209892 -0.040000 0.025891 
-0.209849 -0.040000 0.035891 
-0.209807 -0.040000 0.045891 
-0.209765 -0.040000 0.055891 
-0.209722 -0.040000 0.065891 
-0.210274 -0.030000 -0.064108 
-0.210232 -0.030000 -0.054108 
-0.210189 -0.030000 -0.044108 
-0.210147 -0.030000 -0.034108 
-0.210104 -0.030000 -0.024108 
-0.210062 -0.030000 -0.014108 
-0.210019 -0.030000 -0.004108 
-0.209977 -0.030000 0.005892 
-0.209934 -0.030000 0.015891 
-0.209892 -0.030000 0.025891 
-0.209849 -0.030000 0.035891 
-0.209807 -0.030000 0.045891 
-0.209765 -0.030000 0.055891 
-0.209722 -0.030000 0.065891 
-0.210274 -0.020000 -0.064108 
-0.210232 -0.020000 -0.054108 
-0.210189 -0.020000 -0.044108 
-0.210147 -0.020000 -0.034108 
-0.210104 -0.020000 -0.024108 
-0.210062 -0.020000 -0.014108 
-0.210019 -0.020000 -0.004108 
-0.209977 -0.020000 0.005892 
-0.209934 -0.020000 0.015891 
-0.209892 -0.020000 0.025891 
-0.209849 -0.020000 0.035891 
-0.209807 -0.020000 0.045891 
-0.209765 -0.020000 0.055891 
-0.209722 -0.020000 0.065891 
-0.210232 -0.010000 -0.054108 
-0.210189 -0.010000 -0.044108 
-0.210147 -0.010000 -0.034108 
-0.210104 -0.010000 -0.024108 
-0.210062 -0.010000 -0.014108 
-0.210019 -0.010000 -0.004108 
-0.209977 -0.010000 0.005892 
-0.209934 -0.010000 0.015891 
-0.209892 -0.010000 0.025891 
-0.209849 -0.010000 0.035891 
-0.209807 -0.010000 0.045891 
-0.209765 -0.010000 0.055891 
-0.210232 -0.000000 -0.054108 
-0.210189 -0.000000 -0.044108 
-0.210147 -0.000000 -0.034108 
-0.210104 -0.000000 -0.024108 
-0.210062 -0.000000 -0.014108 
-0.210019 -0.000000 -0.004108 
-0.209977 -0.000000 0.005892 
-0.209934 -0.000000 0.015891 
-0.209892 -0.000000 0.025891 
-0.209849 -0.000000 0.035891 
-0.209807 -0.000000 0.045891 
-0.209765 -0.000000 0.055891 
-0.210189 0.010000 -0.044108 
-0.210147 0.010000 -0.034108 
-0.210104 0.010000 -0.024108 
-0.210062 0.010000 -0.014108 
-0.210019 0.010000 -0.004108 
-0.209977 0.010000 0.005892 
-0.209934 0.010000 0.015891 
-0.209892 0.010000 0.025891 
-0.209849 0.010000 0.035891 
-0.209807 0.010000 0.045891 
-0.210147 0.020000 -0.034108 
-0.210104 0.020000 -0.024108 
-0.210062 0.020000 -0.014108 
-0.210019 0.020000 -0.004108 
-0.209977 0.020000 0.005892 
-0.209934 0.020000 0.015891 
-0.209892 0.020000 0.025891 
-0.209849 0.020000 0.035891 
-0.220104 -0.100000 -0.024066 
-0.220062 -0.100000 -0.014066 
-0.220019 -0.100000 -0.004066 
-0.219977 -0.100000 0.005934 
-0.219934 -0.100000 0.015934 
-0.219892 -0.100000 0.025934 
-0.220147 -0.090000 -0.034066 
-0.220104 -0.090000 -0.024066 
-0.220062 -0.090000 -0.014066 
-0.220019 -0.090000 -0.004066 
-0.219977 -0.090000 0.005934 
-0.219934 -0.090000 0.015934 
-0.219892 -0.090000 0.025934 
-0.219849 -0.090000 0.035934 
-0.220189 -0.080000 -0.044066 
-0.220147 -0.080000 -0.034066 
-0.220104 -0.080000 -0.024066 
-0.220062 -0.080000 -0.014066 
-0.220019 -0.080000 -0.004066 
-0.219977 -0.080000 0.005934 
-0.219934 -0.080000 0.015934 
-0.219892 -0.080000 0.025934 
-0.219849 -0.080000 0.035934 
-0.219807 -0.080000 0.045934 
-0.220232 -0.070000 -0.054065 
-0.220189 -0.070000 -0.044066 
-0.220147 -0.070000 -0.034066 
-0.220104 -0.070000 -0.024066 
-0.220062 -0.070000 -0.014066 
-0.220019 -0.070000 -0.004066 
-0.219977 -0.070000 0.005934 
-0.219934 -0.070000 0.015934 
-0.219892 -0.070000 0.025934 
-0.219849 -0.070000 0.035934 
-0.219807 -0.070000 0.045934 
-0.219764 -0.070000 0.055934 
-0.220232 -0.060000 -0.054065 
-0.220189 -0.060000 -0.044066 
-0.220147 -0.060000 -0.034066 
-0.220104 -0.060000 -0.024066 
-0.220062 -0.060000 -0.014066 
-0.220019 -0.060000 -0.004066 
-0.219977 -0.060000 0.005934 
-0.219934 -0.060000 0.015934 
-0.219892 -0.060000 0.025934 
-0.219849 -0.060000 0.035934 
-0.219807 -0.060000 0.045934 
-0.219764 -0.060000 0.055934 
-0.220232 -0.050000 -0.054065 
-0.220189 -0.050000 -0.044066 
-0.220147 -0.050000 -0.034066 
-0.220104 -0.050000 -0.024066 
-0.220062 -0.050000 -0.014066 
-0.220019 -0.050000 -0.004066 
-0.219977 -0.050000 0.005934 
-0.219934 -0.050000 0.015934 
-0.219892 -0.050000 0.025934 
-0.219849 -0.050000 0.035934 
-0.219807 -0.050000 0.045934 
-0.219764 -0.050000 0.055934 
-0.220274 -0.040000 -0.064065 
-0.220232 -0.040000 -0.054065 
-0.220189 -0.040000 -0.044066 
-0.220147 -0.040000 -0.034066 
-0.220104 -0.040000 -0.024066 
-0.220062 -0.040000 -0.014066 
-0.220019 -0.040000 -0.004066 
-0.219977 -0.040000 0.005934 
-0.219934 -0.040000 0.015934 
-0.219892 -0.040000 0.025934 
-0.219849 -0.040000 0.035934 
-0.219807 -0.040000 0.045934 
-0.219764 -0.040000 0.055934 
-0.219722 -0.040000 0.065933 
-0.220274 -0.030000 -0.064065 
-0.220232 -0.030000 -0.054065 
-0.220189 -0.030000 -0.044066 
-0.220147 -0.030000 -0.034066 
-0.220104 -0.030000 -0.024066 
-0.220062 -0.030000 -0.014066 
-0.220019 -0.030000 -0.004066 
-0.219977 -0.030000 0.005934 
-0.219934 -0.030000 0.015934 
-0.219892 -0.030000 0.025934 
-0.219849 -0.030000 0.035934 
-0.219807 -0.030000 0.045934 
-0.219764 -0.030000 0.055934 
-0.219722 -0.030000 0.065933 
-0.220274 -0.020000 -0.064065 
-0.220232 -0.020000 -0.054065 
-0.220189 -0.020000 -0.044066 
-0.220147 -0.020000 -0.034066 
-0.220104 -0.020000 -0.024066 
-0.220062 -0.020000 -0.014066 
-0.220019 -0.020000 -0.004066 
-0.219977 -0.020000 0.005934 
-0.219934 -0.020000 0.015934 
-0.219892 -0.020000 0.025934 
-0.219849 -0.020000 0.035934 
-0.219807 -0.020000 0.045934 
-0.219764 -0.020000 0.055934 
-0.219722 -0.020000 0.065933 
-0.220232 -0.010000 -0.054065 
-0.220189 -0.010000 -0.044066 
-0.220147 -0.010000 -0.034066 
-0.220104 -0.010000 -0.024066 
-0.220062 -0.010000 -0.014066 
-0.220019 -0.010000 -0.004066 
-0.219977 -0.010000 0.005934 
-0.219934 -0.010000 0.015934 
-0.219892 -0.010000 0.025934 
-0.219849 -0.010000 0.035934 
-0.219807 -0.010000 0.045934 
-0.219764 -0.010000 0.055934 
-0.220232 -0.000000 -0.054065 
-0.220189 -0.000000 -0.044066 
-0.220147 -0.000000 -0.034066 
-0.220104 -0.000000 -0.024066 
-0.220062 -0.000000 -0.014066 
-0.220019 -0.000000 -0.004066 
-0.219977 -0.000000 0.005934 
-0.219934 -0.000000 0.015934 
-0.219892 -0.000000 0.025934 
-0.219849 -0.000000 0.035934 
-0.219807 -0.000000 0.045934 
-0.219764 -0.000000 0.055934 
-0.220189 0.010000 -0.044066 
-0.220147 0.010000 -0.034066 
-0.220104 0.010000 -0.024066 
-0.220062 0.010000 -0.014066 
-0.220019 0.010000 -0.004066 
-0.219977 0.010000 0.005934 
-0.219934 0.010000 0.015934 
-0.219892 0.010000 0.025934 
-0.219849 0.010000 0.035934 
-0.219807 0.010000 0.045934 
-0.220104 0.020000 -0.024066 
-0.220062 0.020000 -0.014066 
-0.220019 0.020000 -0.004066 
-0.219977 0.020000 0.005934 
-0.219934 0.020000 0.015934 
-0.219892 0.020000 0.025934 
-0.230147 -0.100000 -0.034023 
-0.230104 -0.100000 -0.024023 
-0.230062 -0.100000 -0.014023 
-0.230019 -0.100000 -0.004023 
-0.229977 -0.100000 0.005976 
-0.229934 -0.100000 0.015976 
-0.229892 -0.100000 0.025976 
-0.229849 -0.100000 0.035976 
-0.230189 -0.090000 -0.044023 
-0.230147 -0.090000 -0.034023 
-0.230104 -0.090000 -0.024023 
-0.230062 -0.090000 -0.014023 
-0.230019 -0.090000 -0.004023 
-0.229977 -0.090000 0.005976 
-0.229934 -0.090000 0.015976 
-0.229892 -0.090000 0.025976 
-0.229849 -0.090000 0.035976 
-0.229807 -0.090000 0.045976 
-0.230189 -0.080000 -0.044023 
-0.230147 -0.080000 -0.034023 
-0.230104 -0.080000 -0.024023 
-0.230062 -0.080000 -0.014023 
-0.230019 -0.080000 -0.004023 
-0.229977 -0.080000 0.005976 
-0.229934 -0.080000 0.015976 
-0.229892 -0.080000 0.025976 
-0.229849 -0.080000 0.035976 
-0.229807 -0.080000 0.045976 
-0.230232 -0.070000 -0.054023 
-0.230189 -0.070000 -0.044023 
-0.230147 -0.070000 -0.034023 
-0.230104 -0.070000 -0.024023 
-0.230062 -0.070000 -0.014023 
-0.230019 -0.070000 -0.004023 
-0.229977 -0.070000 0.005976 
-0.229934 -0.070000 0.015976 
-0.229892 -0.070000 0.025976 
-0.229849 -0.070000 0.035976 
-0.229807 -0.070000 0.045976 
-0.229764 -0.070000 0.055976 
-0.230232 -0.060000 -0.054023 
-0.230189 -0.060000 -0.044023 
-0.230147 -0.060000 -0.034023 
-0.230104 -0.060000 -0.024023 
-0.230062 -0.060000 -0.014023 
-0.230019 -0.060000 -0.004023 
-0.229977 -0.060000 0.005976 
-0.229934 -0.060000 0.015976 
-0.229892 -0.060000 0.025976 
-0.229849 -0.060000 0.035976 
-0.229807 -0.060000 0.045976 
-0.229764 -0.060000 0.055976 
-0.230232 -0.050000 -0.054023 
-0.230189 -0.050000 -0.044023 
-0.230147 -0.050000 -0.034023 
-0.230104 -0.050000 -0.024023 
-0.230062 -0.050000 -0.014023 
-0.230019 -0.050000 -0.004023 
-0.229977 -0.050000 0.005976 
-0.229934 -0.050000 0.015976 
-0.229892 -0.050000 0.025976 
-0.229849 -0.050000 0.035976 
-0.229807 -0.050000 0.045976 
-0.229764 -0.050000 0.055976 
-0.230274 -0.040000 -0.064023 
-0.230232 -0.040000 -0.054023 
-0.230189 -0.040000 -0.044023 
-0.230147 -0.040000 -0.034023 
-0.230104 -0.040000 -0.024023 
-0.230062 -0.040000 -0.014023 
-0.230019 -0.040000 -0.004023 
-0.229977 -0.040000 0.005976 
-0.229934 -0.040000 0.015976 
-0.229892 -0.040000 0.025976 
-0.229849 -0.040000 0.035976 
-0.229807 -0.040000 0.045976 
-0.229764 -0.040000 0.055976 
-0.229722 -0.040000 0.065976 
-0.230274 -0.030000 -0.064023 
-0.230232 -0.030000 -0.054023 
-0.230189 -0.030000 -0.044023 
-0.230147 -0.030000 -0.034023 
-0.230104 -0.030000 -0.024023 
-0.230062 -0.030000 -0.014023 
-0.230019 -0.030000 -0.004023 
-0.229977 -0.030000 0.005976 
-0.229934 -0.030000 0.015976 
-0.229892 -0.030000 0.025976 
-0.229849 -0.030000 0.035976 
-0.229807 -0.030000 0.045976 
-0.229764 -0.030000 0.055976 
-0.229722 -0.030000 0.065976 
-0.230232 -0.020000 -0.054023 
-0.230189 -0.020000 -0.044023 
-0.230147 -0.020000 -0.034023 
-0.230104 -0.020000 -0.024023 
-0.230062 -0.020000 -0.014023 
-0.230019 -0.020000 -0.004023 
-0.229977 -0.020000 0.005976 
-0.229934 -0.020000 0.015976 
-0.229892 -0.020000 0.025976 
-0.229849 -0.020000 0.035976 
-0.229807 -0.020000 0.045976 
-0.229764 -0.020000 0.055976 
-0.230232 -0.010000 -0.054023 
-0.230189 -0.010000 -0.044023 
-0.230147 -0.010000 -0.034023 
-0.230104 -0.010000 -0.024023 
-0.230062 -0.010000 -0.014023 
-0.230019 -0.010000 -0.004023 
-0.229977 -0.010000 0.005976 
-0.229934 -0.010000 0.015976 
-0.229892 -0.010000 0.025976 
-0.229849 -0.010000 0.035976 
-0.229807 -0.010000 0.045976 
-0.229764 -0.010000 0.055976 
-0.230189 -0.000000 -0.044023 
-0.230147 -0.000000 -0.034023 
-0.230104 -0.000000 -0.024023 
-0.230062 -0.000000 -0.014023 
-0.230019 -0.000000 -0.004023 
-0.229977 -0.000000 0.005976 
-0.229934 -0.000000 0.015976 
-0.229892 -0.000000 0.025976 
-0.229849 -0.000000 0.035976 
-0.229807 -0.000000 0.045976 
-0.230147 0.010000 -0.034023 
-0.230104 0.010000 -0.024023 
-0.230062 0.010000 -0.014023 
-0.230019 0.010000 -0.004023 
-0.229977 0.010000 0.005976 
-0.229934 0.010000 0.015976 
-0.229892 0.010000 0.025976 
-0.229849 0.010000 0.035976 
-0.230062 0.020000 -0.014023 
-0.230019 0.020000 -0.004023 
-0.229977 0.020000 0.005976 
-0.229934 0.020000 0.015976 
-0.240147 -0.100000 -0.033981 
-0.240104 -0.100000 -0.023981 
-0.240062 -0.100000 -0.013981 
-0.240019 -0.100000 -0.003981 
-0.239977 -0.100000 0.006019 
-0.239934 -0.100000 0.016019 
-0.239892 -0.100000 0.026019 
-0.239849 -0.100000 0.036019 
-0.240189 -0.090000 -0.043981 
-0.240147 -0.090000 -0.033981 
-0.240104 -0.090000 -0.023981 
-0.240062 -0.090000 -0.013981 
-0.240019 -0.090000 -0.003981 
-0.239977 -0.090000 0.006019 
-0.239934 -0.090000 0.016019 
-0.239892 -0.090000 0.026019 
-0.239849 -0.090000 0.036019 
-0.239807 -0.090000 0.046019 
-0.240189 -0.080000 -0.043981 
-0.240147 -0.080000 -0.033981 
-0.240104 -0.080000 -0.023981 
-0.240062 -0.080000 -0.013981 
-0.240019 -0.080000 -0.003981 
-0.239977 -0.080000 0.006019 
-0.239934 -0.080000 0.016019 
-0.239892 -0.080000 0.026019 
-0.239849 -0.080000 0.036019 
-0.239807 -0.080000 0.046019 
-0.240231 -0.070000 -0.053981 
-0.240189 -0.070000 -0.043981 
-0.240147 -0.070000 -0.033981 
-0.240104 -0.070000 -0.023981 
-0.240062 -0.070000 -0.013981 
-0.240019 -0.070000 -0.003981 
-0.239977 -0.070000 0.006019 
-0.239934 -0.070000 0.016019 
-0.239892 -0.070000 0.026019 
-0.239849 -0.070000 0.036019 
-0.239807 -0.070000 0.046019 
-0.239764 -0.070000 0.056018 
-0.240231 -0.060000 -0.053981 
-0.240189 -0.060000 -0.043981 
-0.240147 -0.060000 -0.033981 
-0.240104 -0.060000 -0.023981 
-0.240062 -0.060000 -0.013981 
-0.240019 -0.060000 -0.003981 
-0.239977 -0.060000 0.006019 
-0.239934 -0.060000 0.016019 
-0.239892 -0.060000 0.026019 
-0.239849 -0.060000 0.036019 
-0.239807 -0.060000 0.046019 
-0.239764 -0.060000 0.056018 
-0.240231 -0.050000 -0.053981 
-0.240189 -0.050000 -0.043981 
-0.240147 -0.050000 -0.033981 
-0.240104 -0.050000 -0.023981 
-0.240062 -0.050000 -0.013981 
-0.240019 -0.050000 -0.003981 
-0.239977 -0.050000 0.006019 
-0.239934 -0.050000 0.016019 
-0.239892 -0.050000 0.026019 
-0.239849 -0.050000 0.036019 
-0.239807 -0.050000 0.046019 
-0.239764 -0.050000 0.056018 
-0.240274 -0.040000 -0.063980 
-0.240231 -0.040000 -0.053981 
-0.240189 -0.040000 -0.043981 
-0.240147 -0.040000 -0.033981 
-0.240104 -0.040000 -0.023981 
-0.240062 -0.040000 -0.013981 
-0.240019 -0.040000 -0.003981 
-0.239977 -0.040000 0.006019 
-0.239934 -0.040000 0.016019 
-0.239892 -0.040000 0.026019 
-0.239849 -0.040000 0.036019 
-0.239807 -0.040000 0.046019 
-0.239764 -0.040000 0.056018 
-0.239722 -0.040000 0.066018 
-0.240274 -0.030000 -0.063980 
-0.240231 -0.030000 -0.053981 
-0.240189 -0.030000 -0.043981 
-0.240147 -0.030000 -0.033981 
-0.240104 -0.030000 -0.023981 
-0.240062 -0.030000 -0.013981 
-0.240019 -0.030000 -0.003981 
-0.239977 -0.030000 0.006019 
-0.239934 -0.030000 0.016019 
-0.239892 -0.030000 0.026019 
-0.239849 -0.030000 0.036019 
-0.239807 -0.030000 0.046019 
-0.239764 -0.030000 0.056018 
-0.239722 -0.030000 0.066018 
-0.240231 -0.020000 -0.053981 
-0.240189 -0.020000 -0.043981 
-0.240147 -0.020000 -0.033981 
-0.240104 -0.020000 -0.023981 
-0.240062 -0.020000 -0.013981 
-0.240019 -0.020000 -0.003981 
-0.239977 -0.020000 0.006019 
-0.239934 -0.020000 0.016019 
-0.239892 -0.020000 0.026019 
-0.239849 -0.020000 0.036019 
-0.239807 -0.020000 0.046019 
-0.239764 -0.020000 0.056018 
-0.240231 -0.010000 -0.053981 
-0.240189 -0.010000 -0.043981 
-0.240147 -0.010000 -0.033981 
-0.240104 -0.010000 -0.023981 
-0.240062 -0.010000 -0.013981 
-0.240019 -0.010000 -0.003981 
-0.239977 -0.010000 0.006019 
-0.239934 -0.010000 0.016019 
-0.239892 -0.010000 0.026019 
-0.239849 -0.010000 0.036019 
-0.239807 -0.010000 0.046019 
-0.239764 -0.010000 0.056018 
-0.240189 -0.000000 -0.043981 
-0.240147 -0.000000 -0.033981 
-0.240104 -0.000000 -0.023981 
-0.240062 -0.000000 -0.013981 
-0.240019 -0.000000 -0.003981 
-0.239977 -0.000000 0.006019 
-0.239934 -0.000000 0.016019 
-0.239892 -0.000000 0.026019 
-0.239849 -0.000000 0.036019 
-0.239807 -0.000000 0.046019 
-0.240147 0.010000 -0.033981 
-0.240104 0.010000 -0.023981 
-0.240062 0.010000 -0.013981 
-0.240019 0.010000 -0.003981 
-0.239977 0.010000 0.006019 
-0.239934 0.010000 0.016019 
-0.239892 0.010000 0.026019 
-0.239849 0.010000 0.036019 
-0.250146 -0.100000 -0.033938 
-0.250104 -0.100000 -0.023938 
-0.250061 -0.100000 -0.013938 
-0.250019 -0.100000 -0.003938 
-0.249977 -0.100000 0.006061 
-0.249934 -0.100000 0.016061 
-0.249892 -0.100000 0.026061 
-0.249849 -0.100000 0.036061 
-0.250189 -0.090000 -0.043938 
-0.250146 -0.090000 -0.033938 
-0.250104 -0.090000 -0.023938 
-0.250061 -0.090000 -0.013938 
-0.250019 -0.090000 -0.003938 
-0.249977 -0.090000 0.006061 
-0.249934 -0.090000 0.016061 
-0.249892 -0.090000 0.026061 
-0.249849 -0.090000 0.036061 
-0.249807 -0.090000 0.046061 
-0.250189 -0.080000 -0.043938 
-0.250146 -0.080000 -0.033938 
-0.250104 -0.080000 -0.023938 
-0.250061 -0.080000 -0.013938 
-0.250019 -0.080000 -0.003938 
-0.249977 -0.080000 0.006061 
-0.249934 -0.080000 0.016061 
-0.249892 -0.080000 0.026061 
-0.249849 -0.080000 0.036061 
-0.249807 -0.080000 0.046061 
-0.250231 -0.070000 -0.053938 
-0.250189 -0.070000 -0.043938 
-0.250146 -0.070000 -0.033938 
-0.250104 -0.070000 -0.023938 
-0.250061 -0.070000 -0.013938 
-0.250019 -0.070000 -0.003938 
-0.249977 -0.070000 0.006061 
-0.249934 -0.070000 0.016061 
-0.249892 -0.070000 0.026061 
-0.249849 -0.070000 0.036061 
-0.249807 -0.070000 0.046061 
-0.249764 -0.070000 0.056061 
-0.250231 -0.060000 -0.053938 
-0.250189 -0.060000 -0.043938 
-0.250146 -0.060000 -0.033938 
-0.250104 -0.060000 -0.023938 
-0.250061 -0.060000 -0.013938 
-0.250019 -0.060000 -0.003938 
-0.249977 -0.060000 0.006061 
-0.249934 -0.060000 0.016061 
-0.249892 -0.060000 0.026061 
-0.249849 -0.060000 0.036061 
-0.249807 -0.060000 0.046061 
-0.249764 -0.060000 0.056061 
-0.250231 -0.050000 -0.053938 
-0.250189 -0.050000 -0.043938 
-0.250146 -0.050000 -0.033938 
-0.250104 -0.050000 -0.023938 
-0.250061 -0.050000 -0.013938 
-0.250019 -0.050000 -0.003938 
-0.249977 -0.050000 0.006061 
-0.249934 -0.050000 0.016061 
-0.249892 -0.050000 0.026061 
-0.249849 -0.050000 0.036061 
-0.249807 -0.050000 0.046061 
-0.249764 -0.050000 0.056061 
-0.250274 -0.040000 -0.063938 
-0.250231 -0.040000 -0.053938 
-0.250189 -0.040000 -0.043938 
-0.250146 -0.040000 -0.033938 
-0.250104 -0.040000 -0.023938 
-0.250061 -0.040000 -0.013938 
-0.250019 -0.040000 -0.003938 
-0.249977 -0.040000 0.006061 
-0.249934 -0.040000 0.016061 
-0.249892 -0.040000 0.026061 
-0.249849 -0.040000 0.036061 
-0.249807 -0.040000 0.046061 
-0.249764 -0.040000 0.056061 
-0.249722 -0.040000 0.066061 
-0.250274 -0.030000 -0.063938 
-0.250231 -0.030000 -0.053938 
-0.250189 -0.030000 -0.043938 
-0.250146 -0.030000 -0.033938 
-0.250104 -0.030000 -0.023938 
-0.250061 -0.030000 -0.013938 
-0.250019 -0.030000 -0.003938 
-0.249977 -0.030000 0.006061 
-0.249934 -0.030000 0.016061 
-0.249892 -0.030000 0.026061 
-0.249849 -0.030000 0.036061 
-0.249807 -0.030000 0.046061 
-0.249764 -0.030000 0.056061 
-0.249722 -0.030000 0.066061 
-0.250231 -0.020000 -0.053938 
-0.250189 -0.020000 -0.043938 
-0.250146 -0.020000 -0.033938 
-0.250104 -0.020000 -0.023938 
-0.250061 -0.020000 -0.013938 
-0.250019 -0.020000 -0.003938 
-0.249977 -0.020000 0.006061 
-0.249934 -0.020000 0.016061 
-0.249892 -0.020000 0.026061 
-0.249849 -0.020000 0.036061 
-0.249807 -0.020000 0.046061 
-0.249764 -0.020000 0.056061 
-0.250231 -0.010000 -0.053938 
-0.250189 -0.010000 -0.043938 
-0.250146 -0.010000 -0.033938 
-0.250104 -0.010000 -0.023938 
-0.250061 -0.010000 -0.013938 
-0.250019 -0.010000 -0.003938 
-0.249977 -0.010000 0.006061 
-0.249934 -0.010000 0.016061 
-0.249892 -0.010000 0.026061 
-0.249849 -0.010000 0.036061 
-0.249807 -0.010000 0.046061 
-0.249764 -0.010000 0.056061 
-0.250189 -0.000000 -0.043938 
-0.250146 -0.000000 -0.033938 
-0.250104 -0.000000 -0.023938 
-0.250061 -0.000000 -0.013938 
-0.250019 -0.000000 -0.003938 
-0.249977 -0.000000 0.006061 
-0.249934 -0.000000 0.016061 
-0.249892 -0.000000 0.026061 
-0.249849 -0.000000 0.036061 
-0.249807 -0.000000 0.046061 
-0.250104 0.010000 -0.023938 
-0.250061 0.010000 -0.013938 
-0.250019 0.010000 -0.003938 
-0.249977 0.010000 0.006061 
-0.249934 0.010000 0.016061 
-0.249892 0.010000 0.026061 
-0.260146 -0.100000 -0.033896 
-0.260104 -0.100000 -0.023896 
-0.260061 -0.100000 -0.013896 
-0.260019 -0.100000 -0.003896 
-0.259976 -0.100000 0.006104 
-0.259934 -0.100000 0.016104 
-0.259891 -0.100000 0.026104 
-0.259849 -0.100000 0.036104 
-0.260189 -0.090000 -0.043896 
-0.260146 -0.090000 -0.033896 
-0.260104 -0.090000 -0.023896 
-0.260061 -0.090000 -0.013896 
-0.260019 -0.090000 -0.003896 
-0.259976 -0.090000 0.006104 
-0.259934 -0.090000 0.016104 
-0.259891 -0.090000 0.026104 
-0.259849 -0.090000 0.036104 
-0.259807 -0.090000 0.046104 
-0.260189 -0.080000 -0.043896 
-0.260146 -0.080000 -0.033896 
-0.260104 -0.080000 -0.023896 
-0.260061 -0.080000 -0.013896 
-0.260019 -0.080000 -0.003896 
-0.259976 -0.080000 0.006104 
-0.259934 -0.080000 0.016104 
-0.259891 -0.080000 0.026104 
-0.259849 -0.080000 0.036104 
-0.259807 -0.080000 0.046104 
-0.260231 -0.070000 -0.053896 
-0.260189 -0.070000 -0.043896 
-0.260146 -0.070000 -0.033896 
-0.260104 -0.070000 -0.023896 
-0.260061 -0.070000 -0.013896 
-0.260019 -0.070000 -0.003896 
-0.259976 -0.070000 0.006104 
-0.259934 -0.070000 0.016104 
-0.259891 -0.070000 0.026104 
-0.259849 -0.070000 0.036104 
-0.259807 -0.070000 0.046104 
-0.259764 -0.070000 0.056103 
-0.260231 -0.060000 -0.053896 
-0.260189 -0.060000 -0.043896 
-0.260146 -0.060000 -0.033896 
-0.260104 -0.060000 -0.023896 
-0.260061 -0.060000 -0.013896 
-0.260019 -0.060000 -0.003896 
-0.259976 -0.060000 0.006104 
-0.259934 -0.060000 0.016104 
-0.259891 -0.060000 0.026104 
-0.259849 -0.060000 0.036104 
-0.259807 -0.060000 0.046104 
-0.259764 -0.060000 0.056103 
-0.260231 -0.050000 -0.053896 
-0.260189 -0.050000 -0.043896 
-0.260146 -0.050000 -0.033896 
-0.260104 -0.050000 -0.023896 
-0.260061 -0.050000 -0.013896 
-0.260019 -0.050000 -0.003896 
-0.259976 -0.050000 0.006104 
-0.259934 -0.050000 0.016104 
-0.259891 -0.050000 0.026104 
-0.259849 -0.050000 0.036104 
-0.259807 -0.050000 0.046104 
-0.259764 -0.050000 0.056103 
-0.260231 -0.040000 -0.053896 
-0.260189 -0.040000 -0.043896 
-0.260146 -0.040000 -0.033896 
-0.260104 -0.040000 -0.023896 
-0.260061 -0.040000 -0.013896 
-0.260019 -0.040000 -0.003896 
-0.259976 -0.040000 0.006104 
-0.259934 -0.040000 0.016104 
-0.259891 -0.040000 0.026104 
-0.259849 -0.040000 0.036104 
-0.259807 -0.040000 0.046104 
-0.259764 -0.040000 0.056103 
-0.260231 -0.030000 -0.053896 
-0.260189 -0.030000 -0.043896 
-0.260146 -0.030000 -0.033896 
-0.260104 -0.030000 -0.023896 
-0.260061 -0.030000 -0.013896 
-0.260019 -0.030000 -0.003896 
-0.259976 -0.030000 0.006104 
-0.259934 -0.030000 0.016104 
-0.259891 -0.030000 0.026104 
-0.259849 -0.030000 0.036104 
-0.259807 -0.030000 0.046104 
-0.259764 -0.030000 0.056103 
-0.260231 -0.020000 -0.053896 
-0.260189 -0.020000 -0.043896 
-0.260146 -0.020000 -0.033896 
-0.260104 -0.020000 -0.023896 
-0.260061 -0.020000 -0.013896 
-0.260019 -0.020000 -0.003896 
-0.259976 -0.020000 0.006104 
-0.259934 -0.020000 0.016104 
-0.259891 -0.020000 0.026104 
-0.259849 -0.020000 0.036104 
-0.259807 -0.020000 0.046104 
-0.259764 -0.020000 0.056103 
-0.260189 -0.010000 -0.043896 
-0.260146 -0.010000 -0.033896 
-0.260104 -0.010000 -0.023896 
-0.260061 -0.010000 -0.013896 
-0.260019 -0.010000 -0.003896 
-0.259976 -0.010000 0.006104 
-0.259934 -0.010000 0.016104 
-0.259891 -0.010000 0.026104 
-0.259849 -0.010000 0.036104 
-0.259807 -0.010000 0.046104 
-0.260146 -0.000000 -0.033896 
-0.260104 -0.000000 -0.023896 
-0.260061 -0.000000 -0.013896 
-0.260019 -0.000000 -0.003896 
-0.259976 -0.000000 0.006104 
-0.259934 -0.000000 0.016104 
-0.259891 -0.000000 0.026104 
-0.259849 -0.000000 0.036104 
-0.260061 0.010000 -0.013896 
-0.260019 0.010000 -0.003896 
-0.259976 0.010000 0.006104 
-0.259934 0.010000 0.016104 
-0.270146 -0.100000 -0.033853 
-0.270104 -0.100000 -0.023853 
-0.270061 -0.100000 -0.013853 
-0.270019 -0.100000 -0.003854 
-0.269976 -0.100000 0.006146 
-0.269934 -0.100000 0.016146 
-0.269891 -0.100000 0.026146 
-0.269849 -0.100000 0.036146 
-0.270189 -0.090000 -0.043853 
-0.270146 -0.090000 -0.033853 
-0.270104 -0.090000 -0.023853 
-0.270061 -0.090000 -0.013853 
-0.270019 -0.090000 -0.003854 
-0.269976 -0.090000 0.006146 
-0.269934 -0.090000 0.016146 
-0.269891 -0.090000 0.026146 
-0.269849 -0.090000 0.036146 
-0.269806 -0.090000 0.046146 
-0.270189 -0.080000 -0.043853 
-0.270146 -0.080000 -0.033853 
-0.270104 -0.080000 -0.023853 
-0.270061 -0.080000 -0.013853 
-0.270019 -0.080000 -0.003854 
-0.269976 -0.080000 0.006146 
-0.269934 -0.080000 0.016146 
-0.269891 -0.080000 0.026146 
-0.269849 -0.080000 0.036146 
-0.269806 -0.080000 0.046146 
-0.270231 -0.070000 -0.053853 
-0.270189 -0.070000 -0.043853 
-0.270146 -0.070000 -0.033853 
-0.270104 -0.070000 -0.023853 
-0.270061 -0.070000 -0.013853 
-0.270019 -0.070000 -0.003854 
-0.269976 -0.070000 0.006146 
-0.269934 -0.070000 0.016146 
-0.269891 -0.070000 0.026146 
-0.269849 -0.070000 0.036146 
-0.269806 -0.070000 0.046146 
-0.269764 -0.070000 0.056146 
-0.270231 -0.060000 -0.053853 
-0.270189 -0.060000 -0.043853 
-0.270146 -0.060000 -0.033853 
-0.270104 -0.060000 -0.023853 
-0.270061 -0.060000 -0.013853 
-0.270019 -0.060000 -0.003854 
-0.269976 -0.060000 0.006146 
-0.269934 -0.060000 0.016146 
-0.269891 -0.060000 0.026146 
-0.269849 -0.060000 0.036146 
-0.269806 -0.060000 0.046146 
-0.269764 -0.060000 0.056146 
-0.270231 -0.050000 -0.053853 
-0.270189 -0.050000 -0.043853 
-0.270146 -0.050000 -0.033853 
-0.270104 -0.050000 -0.023853 
-0.270061 -0.050000 -0.013853 
-0.270019 -0.050000 -0.003854 
-0.269976 -0.050000 0.006146 
-0.269934 -0.050000 0.016146 
-0.269891 -0.050000 0.026146 
-0.269849 -0.050000 0.036146 
-0.269806 -0.050000 0.046146 
-0.269764 -0.050000 0.056146 
-0.270231 -0.040000 -0.053853 
-0.270189 -0.040000 -0.043853 
-0.270146 -0.040000 -0.033853 
-0.270104 -0.040000 -0.023853 
-0.270061 -0.040000 -0.013853 
-0.270019 -0.040000 -0.003854 
-0.269976 -0.040000 0.006146 
-0.269934 -0.040000 0.016146 
-0.269891 -0.040000 0.026146 
-0.269849 -0.040000 0.036146 
-0.269806 -0.040000 0.046146 
-0.269764 -0.040000 0.056146 
-0.270231 -0.030000 -0.053853 
-0.270189 -0.030000 -0.043853 
-0.270146 -0.030000 -0.033853 
-0.270104 -0.030000 -0.023853 
-0.270061 -0.030000 -0.013853 
-0.270019 -0.030000 -0.003854 
-0.269976 -0.030000 0.006146 
-0.269934 -0.030000 0.016146 
-0.269891 -0.030000 0.026146 
-0.269849 -0.030000 0.036146 
-0.269806 -0.030000 0.046146 
-0.269764 -0.030000 0.056146 
-0.270231 -0.020000 -0.053853 
-0.270189 -0.020000 -0.043853 
-0.270146 -0.020000 -0.033853 
-0.270104 -0.020000 -0.023853 
-0.270061 -0.020000 -0.013853 
-0.270019 -0.020000 -0.003854 
-0.269976 -0.020000 0.006146 
-0.269934 -0.020000 0.016146 
-0.269891 -0.020000 0.026146 
-0.269849 -0.020000 0.036146 
-0.269806 -0.020000 0.046146 
-0.269764 -0.020000 0.056146 
-0.270189 -0.010000 -0.043853 
-0.270146 -0.010000 -0.033853 
-0.270104 -0.010000 -0.023853 
-0.270061 -0.010000 -0.013853 
-0.270019 -0.010000 -0.003854 
-0.269976 -0.010000 0.006146 
-0.269934 -0.010000 0.016146 
-0.269891 -0.010000 0.026146 
-0.269849 -0.010000 0.036146 
-0.269806 -0.010000 0.046146 
-0.270146 -0.000000 -0.033853 
-0.270104 -0.000000 -0.023853 
-0.270061 -0.000000 -0.013853 
-0.270019 -0.000000 -0.003854 
-0.269976 -0.000000 0.006146 
-0.269934 -0.000000 0.016146 
-0.269891 -0.000000 0.026146 
-0.269849 -0.000000 0.036146 
-0.280146 -0.100000 -0.033811 
-0.280104 -0.100000 -0.023811 
-0.280061 -0.100000 -0.013811 
-0.280019 -0.100000 -0.003811 
-0.279976 -0.100000 0.006189 
-0.279934 -0.100000 0.016189 
-0.279891 -0.100000 0.026189 
-0.279849 -0.100000 0.036189 
-0.280189 -0.090000 -0.043811 
-0.280146 -0.090000 -0.033811 
-0.280104 -0.090000 -0.023811 
-0.280061 -0.090000 -0.013811 
-0.280019 -0.090000 -0.003811 
-0.279976 -0.090000 0.006189 
-0.279934 -0.090000 0.016189 
-0.279891 -0.090000 0.026189 
-0.279849 -0.090000 0.036189 
-0.279806 -0.090000 0.046188 
-0.280231 -0.080000 -0.053811 
-0.280189 -0.080000 -0.043811 
-0.280146 -0.080000 -0.033811 
-0.280104 -0.080000 -0.023811 
-0.280061 -0.080000 -0.013811 
-0.280019 -0.080000 -0.003811 
-0.279976 -0.080000 0.006189 
-0.279934 -0.080000 0.016189 
-0.279891 -0.080000 0.026189 
-0.279849 -0.080000 0.036189 
-0.279806 -0.080000 0.046188 
-0.279764 -0.080000 0.056188 
-0.280231 -0.070000 -0.053811 
-0.280189 -0.070000 -0.043811 
-0.280146 -0.070000 -0.033811 
-0.280104 -0.070000 -0.023811 
-0.280061 -0.070000 -0.013811 
-0.280019 -0.070000 -0.003811 
-0.279976 -0.070000 0.006189 
-0.279934 -0.070000 0.016189 
-0.279891 -0.070000 0.026189 
-0.279849 -0.070000 0.036189 
-0.279806 -0.070000 0.046188 
-0.279764 -0.070000 0.056188 
-0.280231 -0.060000 -0.053811 
-0.280189 -0.060000 -0.043811 
-0.280146 -0.060000 -0.033811 
-0.280104 -0.060000 -0.023811 
-0.280061 -0.060000 -0.013811 
-0.280019 -0.060000 -0.003811 
-0.279976 -0.060000 0.006189 
-0.279934 -0.060000 0.016189 
-0.279891 -0.060000 0.026189 
-0.279849 -0.060000 0.036189 
-0.279806 -0.060000 0.046188 
-0.279764 -0.060000 0.056188 
-0.280231 -0.050000 -0.053811 
-0.280189 -0.050000 -0.043811 
-0.280146 -0.050000 -0.033811 
-0.280104 -0.050000 -0.023811 
-0.280061 -0.050000 -0.013811 
-0.280019 -0.050000 -0.003811 
-0.279976 -0.050000 0.006189 
-0.279934 -0.050000 0.016189 
-0.279891 -0.050000 0.026189 
-0.279849 -0.050000 0.036189 
-0.279806 -0.050000 0.046188 
-0.279764 -0.050000 0.056188 
-0.280231 -0.040000 -0.053811 
-0.280189 -0.040000 -0.043811 
-0.280146 -0.040000 -0.033811 
-0.280104 -0.040000 -0.023811 
-0.280061 -0.040000 -0.013811 
-0.280019 -0.040000 -0.003811 
-0.279976 -0.040000 0.006189 
-0.279934 -0.040000 0.016189 
-0.279891 -0.040000 0.026189 
-0.279849 -0.040000 0.036189 
-0.279806 -0.040000 0.046188 
-0.279764 -0.040000 0.056188 
-0.280231 -0.030000 -0.053811 
-0.280189 -0.030000 -0.043811 
-0.280146 -0.030000 -0.033811 
-0.280104 -0.030000 -0.023811 
-0.280061 -0.030000 -0.013811 
-0.280019 -0.030000 -0.003811 
-0.279976 -0.030000 0.006189 
-0.279934 -0.030000 0.016189 
-0.279891 -0.030000 0.026189 
-0.279849 -0.030000 0.036189 
-0.279806 -0.030000 0.046188 
-0.279764 -0.030000 0.056188 
-0.280231 -0.020000 -0.053811 
-0.280189 -0.020000 -0.043811 
-0.280146 -0.020000 -0.033811 
-0.280104 -0.020000 -0.023811 
-0.280061 -0.020000 -0.013811 
-0.280019 -0.020000 -0.003811 
-0.279976 -0.020000 0.006189 
-0.279934 -0.020000 0.016189 
-0.279891 -0.020000 0.026189 
-0.279849 -0.020000 0.036189 
-0.279806 -0.020000 0.046188 
-0.279764 -0.020000 0.056188 
-0.280189 -0.010000 -0.043811 
-0.280146 -0.010000 -0.033811 
-0.280104 -0.010000 -0.023811 
-0.280061 -0.010000 -0.013811 
-0.280019 -0.010000 -0.003811 
-0.279976 -0.010000 0.006189 
-0.279934 -0.010000 0.016189 
-0.279891 -0.010000 0.026189 
-0.279849 -0.010000 0.036189 
-0.279806 -0.010000 0.046188 
-0.280104 -0.000000 -0.023811 
-0.280061 -0.000000 -0.013811 
-0.280019 -0.000000 -0.003811 
-0.279976 -0.000000 0.006189 
-0.279934 -0.000000 0.016189 
-0.279891 -0.000000 0.026189 
-0.290146 -0.100000 -0.033768 
-0.290104 -0.100000 -0.023768 
-0.290061 -0.100000 -0.013769 
-0.290019 -0.100000 -0.003769 
-0.289976 -0.100000 0.006231 
-0.289934 -0.100000 0.016231 
-0.289891 -0.100000 0.026231 
-0.289849 -0.100000 0.036231 
-0.290188 -0.090000 -0.043768 
-0.290146 -0.090000 -0.033768 
-0.290104 -0.090000 -0.023768 
-0.290061 -0.090000 -0.013769 
-0.290019 -0.090000 -0.003769 
-0.289976 -0.090000 0.006231 
-0.289934 -0.090000 0.016231 
-0.289891 -0.090000 0.026231 
-0.289849 -0.090000 0.036231 
-0.289806 -0.090000 0.046231 
-0.290231 -0.080000 -0.053768 
-0.290188 -0.080000 -0.043768 
-0.290146 -0.080000 -0.033768 
-0.290104 -0.080000 -0.023768 
-0.290061 -0.080000 -0.013769 
-0.290019 -0.080000 -0.003769 
-0.289976 -0.080000 0.006231 
-0.289934 -0.080000 0.016231 
-0.289891 -0.080000 0.026231 
-0.289849 -0.080000 0.036231 
-0.289806 -0.080000 0.046231 
-0.289764 -0.080000 0.056231 
-0.290231 -0.070000 -0.053768 
-0.290188 -0.070000 -0.043768 
-0.290146 -0.070000 -0.033768 
-0.290104 -0.070000 -0.023768 
-0.290061 -0.070000 -0.013769 
-0.290019 -0.070000 -0.003769 
-0.289976 -0.070000 0.006231 
-0.289934 -0.070000 0.016231 
-0.289891 -0.070000 0.026231 
-0.289849 -0.070000 0.036231 
-0.289806 -0.070000 0.046231 
-0.289764 -0.070000 0.056231 
-0.290231 -0.060000 -0.053768 
-0.290188 -0.060000 -0.043768 
-0.290146 -0.060000 -0.033768 
-0.290104 -0.060000 -0.023768 
-0.290061 -0.060000 -0.013769 
-0.290019 -0.060000 -0.003769 
-0.289976 -0.060000 0.006231 
-0.289934 -0.060000 0.016231 
-0.289891 -0.060000 0.026231 
-0.289849 -0.060000 0.036231 
-0.289806 -0.060000 0.046231 
-0.289764 -0.060000 0.056231 
-0.290231 -0.050000 -0.053768 
-0.290188 -0.050000 -0.043768 
-0.290146 -0.050000 -0.033768 
-0.290104 -0.050000 -0.023768 
-0.290061 -0.050000 -0.013769 
-0.290019 -0.050000 -0.003769 
-0.289976 -0.050000 0.006231 
-0.289934 -0.050000 0.016231 
-0.289891 -0.050000 0.026231 
-0.289849 -0.050000 0.036231 
-0.289806 -0.050000 0.046231 
-0.289764 -0.050000 0.056231 
-0.290231 -0.040000 -0.053768 
-0.290188 -0.040000 -0.043768 
-0.290146 -0.040000 -0.033768 
-0.290104 -0.040000 -0.023768 
-0.290061 -0.040000 -0.013769 
-0.290019 -0.040000 -0.003769 
-0.289976 -0.040000 0.006231 
-0.289934 -0.040000 0.016231 
-0.289891 -0.040000 0.026231 
-0.289849 -0.040000 0.036231 
-0.289806 -0.040000 0.046231 
-0.289764 -0.040000 0.056231 
-0.290231 -0.030000 -0.053768 
-0.290188 -0.030000 -0.043768 
-0.290146 -0.030000 -0.033768 
-0.290104 -0.030000 -0.023768 
-0.290061 -0.030000 -0.013769 
-0.290019 -0.030000 -0.003769 
-0.289976 -0.030000 0.006231 
-0.289934 -0.030000 0.016231 
-0.289891 -0.030000 0.026231 
-0.289849 -0.030000 0.036231 
-0.289806 -0.030000 0.046231 
-0.289764 -0.030000 0.056231 
-0.290188 -0.020000 -0.043768 
-0.290146 -0.020000 -0.033768 
-0.290104 -0.020000 -0.023768 
-0.290061 -0.020000 -0.013769 
-0.290019 -0.020000 -0.003769 
-0.289976 -0.020000 0.006231 
-0.289934 -0.020000 0.016231 
-0.289891 -0.020000 0.026231 
-0.289849 -0.020000 0.036231 
-0.289806 -0.020000 0.046231 
-0.290146 -0.010000 -0.033768 
-0.290104 -0.010000 -0.023768 
-0.290061 -0.010000 -0.013769 
-0.290019 -0.010000 -0.003769 
-0.289976 -0.010000 0.006231 
-0.289934 -0.010000 0.016231 
-0.289891 -0.010000 0.026231 
-0.289849 -0.010000 0.036231 
-0.290061 -0.000000 -0.013769 
-0.290019 -0.000000 -0.003769 
-0.289976 -0.000000 0.006231 
-0.289934 -0.000000 0.016231 
-0.300146 -0.100000 -0.033726 
-0.300103 -0.100000 -0.023726 
-0.300061 -0.100000 -0.013726 
-0.300018 -0.100000 -0.003726 
-0.299976 -0.100000 0.006274 
-0.299934 -0.100000 0.016274 
-0.299891 -0.100000 0.026274 
-0.299849 -0.100000 0.036274 
-0.300188 -0.090000 -0.043726 
-0.300146 -0.090000 -0.033726 
-0.300103 -0.090000 -0.023726 
-0.300061 -0.090000 -0.013726 
-0.300018 -0.090000 -0.003726 
-0.299976 -0.090000 0.006274 
-0.299934 -0.090000 0.016274 
-0.299891 -0.090000 0.026274 
-0.299849 -0.090000 0.036274 
-0.299806 -0.090000 0.046273 
-0.300231 -0.080000 -0.053726 
-0.300188 -0.080000 -0.043726 
-0.300146 -0.080000 -0.033726 
-0.300103 -0.080000 -0.023726 
-0.300061 -0.080000 -0.013726 
-0.300018 -0.080000 -0.003726 
-0.299976 -0.080000 0.006274 
-0.299934 -0.080000 0.016274 
-0.299891 -0.080000 0.026274 
-0.299849 -0.080000 0.036274 
-0.299806 -0.080000 0.046273 
-0.299764 -0.080000 0.056273 
-0.300231 -0.070000 -0.053726 
-0.300188 -0.070000 -0.043726 
-0.300146 -0.070000 -0.033726 
-0.300103 -0.070000 -0.023726 
-0.300061 -0.070000 -0.013726 
-0.300018 -0.070000 -0.003726 
-0.299976 -0.070000 0.006274 
-0.299934 -0.070000 0.016274 
-0.299891 -0.070000 0.026274 
-0.299849 -0.070000 0.036274 
-0.299806 -0.070000 0.046273 
-0.299764 -0.070000 0.056273 
-0.300231 -0.060000 -0.053726 
-0.300188 -0.060000 -0.043726 
-0.300146 -0.060000 -0.033726 
-0.300103 -0.060000 -0.023726 
-0.300061 -0.060000 -0.013726 
-0.300018 -0.060000 -0.003726 
-0.299976 -0.060000 0.006274 
-0.299934 -0.060000 0.016274 
-0.299891 -0.060000 0.026274 
-0.299849 -0.060000 0.036274 
-0.299806 -0.060000 0.046273 
-0.299764 -0.060000 0.056273 
-0.300231 -0.050000 -0.053726 
-0.300188 -0.050000 -0.043726 
-0.300146 -0.050000 -0.033726 
-0.300103 -0.050000 -0.023726 
-0.300061 -0.050000 -0.013726 
-0.300018 -0.050000 -0.003726 
-0.299976 -0.050000 0.006274 
-0.299934 -0.050000 0.016274 
-0.299891 -0.050000 0.026274 
-0.299849 -0.050000 0.036274 
-0.299806 -0.050000 0.046273 
-0.299764 -0.050000 0.056273 
-0.300231 -0.040000 -0.053726 
-0.300188 -0.040000 -0.043726 
-0.300146 -0.040000 -0.033726 
-0.300103 -0.040000 -0.023726 
-0.300061 -0.040000 -0.013726 
-0.300018 -0.040000 -0.003726 
-0.299976 -0.040000 0.006274 
-0.299934 -0.040000 0.016274 
-0.299891 -0.040000 0.026274 
-0.299849 -0.040000 0.036274 
-0.299806 -0.040000 0.046273 
-0.299764 -0.040000 0.056273 
-0.300231 -0.030000 -0.053726 
-0.300188 -0.030000 -0.043726 
-0.300146 -0.030000 -0.033726 
-0.300103 -0.030000 -0.023726 
-0.300061 -0.030000 -0.013726 
-0.300018 -0.030000 -0.003726 
-0.299976 -0.030000 0.006274 
-0.299934 -0.030000 0.016274 
-0.299891 -0.030000 0.026274 
-0.299849 -0.030000 0.036274 
-0.299806 -0.030000 0.046273 
-0.299764 -0.030000 0.056273 
-0.300188 -0.020000 -0.043726 
-0.300146 -0.020000 -0.033726 
-0.300103 -0.020000 -0.023726 
-0.300061 -0.020000 -0.013726 
-0.300018 -0.020000 -0.003726 
-0.299976 -0.020000 0.006274 
-0.299934 -0.020000 0.016274 
-0.299891 -0.020000 0.026274 
-0.299849 -0.020000 0.036274 
-0.299806 -0.020000 0.046273 
-0.300146 -0.010000 -0.033726 
-0.300103 -0.010000 -0.023726 
-0.300061 -0.010000 -0.013726 
-0.300018 -0.010000 -0.003726 
-0.299976 -0.010000 0.006274 
-0.299934 -0.010000 0.016274 
-0.299891 -0.010000 0.026274 
-0.299849 -0.010000 0.036274 
-0.310188 -0.100000 -0.043683 
-0.310146 -0.100000 -0.033683 
-0.310103 -0.100000 -0.023683 
-0.310061 -0.100000 -0.013684 
-0.310018 -0.100000 -0.003684 
-0.309976 -0.100000 0.006316 
-0.309933 -0.100000 0.016316 
-0.309891 -0.100000 0.026316 
-0.309848 -0.100000 0.036316 
-0.309806 -0.100000 0.046316 
-0.310188 -0.090000 -0.043683 
-0.310146 -0.090000 -0.033683 
-0.310103 -0.090000 -0.023683 
-0.310061 -0.090000 -0.013684 
-0.310018 -0.090000 -0.003684 
-0.309976 -0.090000 0.006316 
-0.309933 -0.090000 0.016316 
-0.309891 -0.090000 0.026316 
-0.309848 -0.090000 0.036316 
-0.309806 -0.090000 0.046316 
-0.310231 -0.080000 -0.053683 
-0.310188 -0.080000 -0.043683 
-0.310146 -0.080000 -0.033683 
-0.310103 -0.080000 -0.023683 
-0.310061 -0.080000 -0.013684 
-0.310018 -0.080000 -0.003684 
-0.309976 -0.080000 0.006316 
-0.309933 -0.080000 0.016316 
-0.309891 -0.080000 0.026316 
-0.309848 -0.080000 0.036316 
-0.309806 -0.080000 0.046316 
-0.309764 -0.080000 0.056316 
-0.310231 -0.070000 -0.053683 
-0.310188 -0.070000 -0.043683 
-0.310146 -0.070000 -0.033683 
-0.310103 -0.070000 -0.023683 
-0.310061 -0.070000 -0.013684 
-0.310018 -0.070000 -0.003684 
-0.309976 -0.070000 0.006316 
-0.309933 -0.070000 0.016316 
-0.309891 -0.070000 0.026316 
-0.309848 -0.070000 0.036316 
-0.309806 -0.070000 0.046316 
-0.309764 -0.070000 0.056316 
-0.310231 -0.060000 -0.053683 
-0.310188 -0.060000 -0.043683 
-0.310146 -0.060000 -0.033683 
-0.310103 -0.060000 -0.023683 
-0.310061 -0.060000 -0.013684 
-0.310018 -0.060000 -0.003684 
-0.309976 -0.060000 0.006316 
-0.309933 -0.060000 0.016316 
-0.309891 -0.060000 0.026316 
-0.309848 -0.060000 0.036316 
-0.309806 -0.060000 0.046316 
-0.309764 -0.060000 0.056316 
-0.310231 -0.050000 -0.053683 
-0.310188 -0.050000 -0.043683 
-0.310146 -0.050000 -0.033683 
-0.310103 -0.050000 -0.023683 
-0.310061 -0.050000 -0.013684 
-0.310018 -0.050000 -0.003684 
-0.309976 -0.050000 0.006316 
