0.045074 0.010000 0.079959 
0.035074 0.010000 0.079968 
0.025074 0.010000 0.079977 
0.015074 0.010000 0.079986 
0.005074 0.010000 0.079995 
-0.004926 0.010000 0.080005 
-0.014926 0.010000 0.080014 
-0.024926 0.010000 0.080023 
-0.034926 0.010000 0.080032 
-0.044926 0.010000 0.080041 
-0.054926 0.010000 0.080050 
-0.064926 0.010000 0.080059 
0.055074 0.020000 0.079950 
0.045074 0.020000 0.079959 
0.035074 0.020000 0.079968 
0.025074 0.020000 0.079977 
0.015074 0.020000 0.079986 
0.005074 0.020000 0.079995 
-0.004926 0.020000 0.080005 
-0.014926 0.020000 0.080014 
-0.024926 0.020000 0.080023 
-0.034926 0.020000 0.080032 
-0.044926 0.020000 0.080041 
-0.054926 0.020000 0.080050 
0.055074 0.030000 0.079950 
0.045074 0.030000 0.079959 
0.035074 0.030000 0.079968 
0.025074 0.030000 0.079977 
0.015074 0.030000 0.079986 
0.005074 0.030000 0.079995 
-0.004926 0.030000 0.080005 
-0.014926 0.030000 0.080014 
-0.024926 0.030000 0.080023 
-0.034926 0.030000 0.080032 
-0.044926 0.030000 0.080041 
-0.054926 0.030000 0.080050 
0.045074 0.040000 0.079959 
0.035074 0.040000 0.079968 
0.025074 0.040000 0.079977 
0.015074 0.040000 0.079986 
0.005074 0.040000 0.079995 
-0.004926 0.040000 0.080005 
-0.014926 0.040000 0.080014 
-0.024926 0.040000 0.080023 
-0.034926 0.040000 0.080032 
-0.044926 0.040000 0.080041 
0.035074 0.050000 0.079968 
0.025074 0.050000 0.079977 
0.015074 0.050000 0.079986 
0.005074 0.050000 0.079995 
-0.004926 0.050000 0.080005 
-0.014926 0.050000 0.080014 
-0.024926 0.050000 0.080023 
-0.034926 0.050000 0.080032 
0.015074 0.060000 0.079986 
0.005074 0.060000 0.079995 
-0.004926 0.060000 0.080005 
-0.014926 0.060000 0.080014 
0.015064 -0.080000 0.069986 
0.005064 -0.080000 0.069995 
-0.004936 -0.080000 0.070005 
-0.014936 -0.080000 0.070014 
0.035064 -0.070000 0.069968 
0.025064 -0.070000 0.069977 
0.015064 -0.070000 0.069986 
0.005064 -0.070000 0.069995 
-0.004936 -0.070000 0.070005 
-0.014936 -0.070000 0.070014 
-0.024936 -0.070000 0.070023 
-0.034936 -0.070000 0.070032 
0.045064 -0.060000 0.069959 
0.035064 -0.060000 0.069968 
0.025064 -0.060000 0.069977 
0.015064 -0.060000 0.069986 
0.005064 -0.060000 0.069995 
-0.004936 -0.060000 0.070005 
-0.014936 -0.060000 0.070014 
-0.024936 -0.060000 0.070023 
-0.034936 -0.060000 0.070032 
-0.044936 -0.060000 0.070041 
0.055064 -0.050000 0.069950 
0.045064 -0.050000 0.069959 
0.035064 -0.050000 0.069968 
0.025064 -0.050000 0.069977 
0.015064 -0.050000 0.069986 
0.005064 -0.050000 0.069995 
-0.004936 -0.050000 0.070005 
-0.014936 -0.050000 0.070014 
-0.024936 -0.050000 0.070023 
-0.034936 -0.050000 0.070032 
-0.044936 -0.050000 0.070041 
-0.054936 -0.050000 0.070050 
0.055064 -0.040000 0.069950 
0.045064 -0.040000 0.069959 
0.035064 -0.040000 0.069968 
0.025064 -0.040000 0.069977 
0.015064 -0.040000 0.069986 
0.005064 -0.040000 0.069995 
-0.004936 -0.040000 0.070005 
-0.014936 -0.040000 0.070014 
-0.024936 -0.040000 0.070023 
-0.034936 -0.040000 0.070032 
-0.044936 -0.040000 0.070041 
-0.054936 -0.040000 0.070050 
0.055064 -0.030000 0.069950 
0.045064 -0.030000 0.069959 
0.035064 -0.030000 0.069968 
0.025064 -0.030000 0.069977 
0.015064 -0.030000 0.069986 
0.005064 -0.030000 0.069995 
-0.004936 -0.030000 0.070005 
-0.014936 -0.030000 0.070014 
-0.024936 -0.030000 0.070023 
-0.034936 -0.030000 0.070032 
-0.044936 -0.030000 0.070041 
-0.054936 -0.030000 0.070050 
0.065064 -0.020000 0.069940 
0.055064 -0.020000 0.069950 
0.045064 -0.020000 0.069959 
0.035064 -0.020000 0.069968 
0.025064 -0.020000 0.069977 
0.015064 -0.020000 0.069986 
0.005064 -0.020000 0.069995 
-0.004936 -0.020000 0.070005 
-0.014936 -0.020000 0.070014 
-0.024936 -0.020000 0.070023 
-0.034936 -0.020000 0.070032 
-0.044936 -0.020000 0.070041 
-0.054936 -0.020000 0.070050 
-0.064936 -0.020000 0.070059 
0.065064 -0.010000 0.069940 
0.055064 -0.010000 0.069950 
0.045064 -0.010000 0.069959 
0.035064 -0.010000 0.069968 
0.025064 -0.010000 0.069977 
0.015064 -0.010000 0.069986 
0.005064 -0.010000 0.069995 
-0.004936 -0.010000 0.070005 
-0.014936 -0.010000 0.070014 
-0.024936 -0.010000 0.070023 
-0.034936 -0.010000 0.070032 
-0.044936 -0.010000 0.070041 
-0.054936 -0.010000 0.070050 
-0.064936 -0.010000 0.070059 
0.065064 -0.000000 0.069940 
0.055064 -0.000000 0.069950 
0.045064 -0.000000 0.069959 
0.035064 -0.000000 0.069968 
0.025064 -0.000000 0.069977 
0.015064 -0.000000 0.069986 
0.005064 -0.000000 0.069995 
-0.004936 -0.000000 0.070005 
-0.014936 -0.000000 0.070014 
-0.024936 -0.000000 0.070023 
-0.034936 -0.000000 0.070032 
-0.044936 -0.000000 0.070041 
-0.054936 -0.000000 0.070050 
-0.064936 -0.000000 0.070059 
0.065064 0.010000 0.069940 
0.055064 0.010000 0.069950 
0.045064 0.010000 0.069959 
0.035064 0.010000 0.069968 
0.025064 0.010000 0.069977 
0.015064 0.010000 0.069986 
0.005064 0.010000 0.069995 
-0.004936 0.010000 0.070005 
-0.014936 0.010000 0.070014 
-0.024936 0.010000 0.070023 
-0.034936 0.010000 0.070032 
-0.044936 0.010000 0.070041 
-0.054936 0.010000 0.070050 
-0.064936 0.010000 0.070059 
0.065064 0.020000 0.069940 
0.055064 0.020000 0.069950 
0.045064 0.020000 0.069959 
0.035064 0.020000 0.069968 
0.025064 0.020000 0.069977 
0.015064 0.020000 0.069986 
0.005064 0.020000 0.069995 
-0.004936 0.020000 0.070005 
-0.014936 0.020000 0.070014 
-0.024936 0.020000 0.070023 
-0.034936 0.020000 0.070032 
-0.044936 0.020000 0.070041 
-0.054936 0.020000 0.070050 
-0.064936 0.020000 0.070059 
0.055064 0.030000 0.069950 
0.045064 0.030000 0.069959 
0.035064 0.030000 0.069968 
0.025064 0.030000 0.069977 
0.015064 0.030000 0.069986 
0.005064 0.030000 0.069995 
-0.004936 0.030000 0.070005 
-0.014936 0.030000 0.070014 
-0.024936 0.030000 0.070023 
-0.034936 0.030000 0.070032 
-0.044936 0.030000 0.070041 
-0.054936 0.030000 0.070050 
0.055064 0.040000 0.069950 
0.045064 0.040000 0.069959 
0.035064 0.040000 0.069968 
0.025064 0.040000 0.069977 
0.015064 0.040000 0.069986 
0.005064 0.040000 0.069995 
-0.004936 0.040000 0.070005 
-0.014936 0.040000 0.070014 
-0.024936 0.040000 0.070023 
-0.034936 0.040000 0.070032 
-0.044936 0.040000 0.070041 
-0.054936 0.040000 0.070050 
0.045064 0.050000 0.069959 
0.035064 0.050000 0.069968 
0.025064 0.050000 0.069977 
0.015064 0.050000 0.069986 
0.005064 0.050000 0.069995 
-0.004936 0.050000 0.070005 
-0.014936 0.050000 0.070014 
-0.024936 0.050000 0.070023 
-0.034936 0.050000 0.070032 
-0.044936 0.050000 0.070041 
0.025064 0.060000 0.069977 
0.015064 0.060000 0.069986 
0.005064 0.060000 0.069995 
-0.004936 0.060000 0.070005 
-0.014936 0.060000 0.070014 
-0.024936 0.060000 0.070023 
0.015055 -0.090000 0.059986 
0.005055 -0.090000 0.059995 
-0.004945 -0.090000 0.060005 
-0.014945 -0.090000 0.060014 
0.035055 -0.080000 0.059968 
0.025055 -0.080000 0.059977 
0.015055 -0.080000 0.059986 
0.005055 -0.080000 0.059995 
-0.004945 -0.080000 0.060005 
-0.014945 -0.080000 0.060014 
-0.024945 -0.080000 0.060023 
-0.034945 -0.080000 0.060032 
0.045055 -0.070000 0.059959 
0.035055 -0.070000 0.059968 
0.025055 -0.070000 0.059977 
0.015055 -0.070000 0.059986 
0.005055 -0.070000 0.059995 
-0.004945 -0.070000 0.060005 
-0.014945 -0.070000 0.060014 
-0.024945 -0.070000 0.060023 
-0.034945 -0.070000 0.060032 
-0.044945 -0.070000 0.060041 
0.055055 -0.060000 0.059950 
0.045055 -0.060000 0.059959 
0.035055 -0.060000 0.059968 
0.025055 -0.060000 0.059977 
0.015055 -0.060000 0.059986 
0.005055 -0.060000 0.059995 
-0.004945 -0.060000 0.060005 
-0.014945 -0.060000 0.060014 
-0.024945 -0.060000 0.060023 
-0.034945 -0.060000 0.060032 
-0.044945 -0.060000 0.060041 
-0.054945 -0.060000 0.060050 
0.055055 -0.050000 0.059950 
0.045055 -0.050000 0.059959 
0.035055 -0.050000 0.059968 
0.025055 -0.050000 0.059977 
0.015055 -0.050000 0.059986 
0.005055 -0.050000 0.059995 
-0.004945 -0.050000 0.060005 
-0.014945 -0.050000 0.060014 
-0.024945 -0.050000 0.060023 
-0.034945 -0.050000 0.060032 
-0.044945 -0.050000 0.060041 
-0.054945 -0.050000 0.060050 
0.055055 -0.040000 0.059950 
0.045055 -0.040000 0.059959 
0.035055 -0.040000 0.059968 
0.025055 -0.040000 0.059977 
0.015055 -0.040000 0.059986 
0.005055 -0.040000 0.059995 
-0.004945 -0.040000 0.060005 
-0.014945 -0.040000 0.060014 
-0.024945 -0.040000 0.060023 
-0.034945 -0.040000 0.060032 
-0.044945 -0.040000 0.060041 
-0.054945 -0.040000 0.060050 
0.065055 -0.030000 0.059940 
0.055055 -0.030000 0.059950 
0.045055 -0.030000 0.059959 
0.035055 -0.030000 0.059968 
0.025055 -0.030000 0.059977 
0.015055 -0.030000 0.059986 
0.005055 -0.030000 0.059995 
-0.004945 -0.030000 0.060005 
-0.014945 -0.030000 0.060014 
-0.024945 -0.030000 0.060023 
-0.034945 -0.030000 0.060032 
-0.044945 -0.030000 0.060041 
-0.054945 -0.030000 0.060050 
-0.064945 -0.030000 0.060059 
0.065055 -0.020000 0.059940 
0.055055 -0.020000 0.059950 
0.045055 -0.020000 0.059959 
0.035055 -0.020000 0.059968 
0.025055 -0.020000 0.059977 
0.015055 -0.020000 0.059986 
0.005055 -0.020000 0.059995 
-0.004945 -0.020000 0.060005 
-0.014945 -0.020000 0.060014 
-0.024945 -0.020000 0.060023 
-0.034945 -0.020000 0.060032 
-0.044945 -0.020000 0.060041 
-0.054945 -0.020000 0.060050 
-0.064945 -0.020000 0.060059 
0.065055 -0.010000 0.059940 
0.055055 -0.010000 0.059950 
0.045055 -0.010000 0.059959 
0.035055 -0.010000 0.059968 
0.025055 -0.010000 0.059977 
0.015055 -0.010000 0.059986 
0.005055 -0.010000 0.059995 
-0.004945 -0.010000 0.060005 
-0.014945 -0.010000 0.060014 
-0.024945 -0.010000 0.060023 
-0.034945 -0.010000 0.060032 
-0.044945 -0.010000 0.060041 
-0.054945 -0.010000 0.060050 
-0.064945 -0.010000 0.060059 
0.065055 -0.000000 0.059940 
0.055055 -0.000000 0.059950 
0.045055 -0.000000 0.059959 
0.035055 -0.000000 0.059968 
0.025055 -0.000000 0.059977 
0.015055 -0.000000 0.059986 
0.005055 -0.000000 0.059995 
-0.004945 -0.000000 0.060005 
-0.014945 -0.000000 0.060014 
-0.024945 -0.000000 0.060023 
-0.034945 -0.000000 0.060032 
-0.044945 -0.000000 0.060041 
-0.054945 -0.000000 0.060050 
-0.064945 -0.000000 0.060059 
0.065055 0.010000 0.059940 
0.055055 0.010000 0.059950 
0.045055 0.010000 0.059959 
0.035055 0.010000 0.059968 
0.025055 0.010000 0.059977 
0.015055 0.010000 0.059986 
0.005055 0.010000 0.059995 
-0.004945 0.010000 0.060005 
-0.014945 0.010000 0.060014 
-0.024945 0.010000 0.060023 
-0.034945 0.010000 0.060032 
-0.044945 0.010000 0.060041 
-0.054945 0.010000 0.060050 
-0.064945 0.010000 0.060059 
0.065055 0.020000 0.059940 
0.055055 0.020000 0.059950 
0.045055 0.020000 0.059959 
0.035055 0.020000 0.059968 
0.025055 0.020000 0.059977 
0.015055 0.020000 0.059986 
0.005055 0.020000 0.059995 
-0.004945 0.020000 0.060005 
-0.014945 0.020000 0.060014 
-0.024945 0.020000 0.060023 
-0.034945 0.020000 0.060032 
-0.044945 0.020000 0.060041 
-0.054945 0.020000 0.060050 
-0.064945 0.020000 0.060059 
0.065055 0.030000 0.059940 
0.055055 0.030000 0.059950 
0.045055 0.030000 0.059959 
0.035055 0.030000 0.059968 
0.025055 0.030000 0.059977 
0.015055 0.030000 0.059986 
0.005055 0.030000 0.059995 
-0.004945 0.030000 0.060005 
-0.014945 0.030000 0.060014 
-0.024945 0.030000 0.060023 
-0.034945 0.030000 0.060032 
-0.044945 0.030000 0.060041 
-0.054945 0.030000 0.060050 
-0.064945 0.030000 0.060059 
0.055055 0.040000 0.059950 
0.045055 0.040000 0.059959 
0.035055 0.040000 0.059968 
0.025055 0.040000 0.059977 
0.015055 0.040000 0.059986 
0.005055 0.040000 0.059995 
-0.004945 0.040000 0.060005 
-0.014945 0.040000 0.060014 
-0.024945 0.040000 0.060023 
-0.034945 0.040000 0.060032 
-0.044945 0.040000 0.060041 
-0.054945 0.040000 0.060050 
0.045055 0.050000 0.059959 
0.035055 0.050000 0.059968 
0.025055 0.050000 0.059977 
0.015055 0.050000 0.059986 
0.005055 0.050000 0.059995 
-0.004945 0.050000 0.060005 
-0.014945 0.050000 0.060014 
-0.024945 0.050000 0.060023 
-0.034945 0.050000 0.060032 
-0.044945 0.050000 0.060041 
0.035055 0.060000 0.059968 
0.025055 0.060000 0.059977 
0.015055 0.060000 0.059986 
0.005055 0.060000 0.059995 
-0.004945 0.060000 0.060005 
-0.014945 0.060000 0.060014 
-0.024945 0.060000 0.060023 
-0.034945 0.060000 0.060032 
0.015046 -0.100000 0.049986 
0.005046 -0.100000 0.049995 
-0.004954 -0.100000 0.050005 
-0.014954 -0.100000 0.050014 
0.035046 -0.090000 0.049968 
0.025046 -0.090000 0.049977 
0.015046 -0.090000 0.049986 
0.005046 -0.090000 0.049995 
-0.004954 -0.090000 0.050005 
-0.014954 -0.090000 0.050014 
-0.024954 -0.090000 0.050023 
-0.034954 -0.090000 0.050032 
0.045046 -0.080000 0.049959 
0.035046 -0.080000 0.049968 
0.025046 -0.080000 0.049977 
0.015046 -0.080000 0.049986 
0.005046 -0.080000 0.049995 
-0.004954 -0.080000 0.050005 
-0.014954 -0.080000 0.050014 
-0.024954 -0.080000 0.050023 
-0.034954 -0.080000 0.050032 
-0.044954 -0.080000 0.050041 
0.055046 -0.070000 0.049950 
0.045046 -0.070000 0.049959 
0.035046 -0.070000 0.049968 
0.025046 -0.070000 0.049977 
0.015046 -0.070000 0.049986 
0.005046 -0.070000 0.049995 
-0.004954 -0.070000 0.050005 
-0.014954 -0.070000 0.050014 
-0.024954 -0.070000 0.050023 
-0.034954 -0.070000 0.050032 
-0.044954 -0.070000 0.050041 
-0.054954 -0.070000 0.050050 
0.055046 -0.060000 0.049950 
0.045046 -0.060000 0.049959 
0.035046 -0.060000 0.049968 
0.025046 -0.060000 0.049977 
0.015046 -0.060000 0.049986 
0.005046 -0.060000 0.049995 
-0.004954 -0.060000 0.050005 
-0.014954 -0.060000 0.050014 
-0.024954 -0.060000 0.050023 
-0.034954 -0.060000 0.050032 
-0.044954 -0.060000 0.050041 
-0.054954 -0.060000 0.050050 
0.055046 -0.050000 0.049950 
0.045046 -0.050000 0.049959 
0.035046 -0.050000 0.049968 
0.025046 -0.050000 0.049977 
0.015046 -0.050000 0.049986 
0.005046 -0.050000 0.049995 
-0.004954 -0.050000 0.050005 
-0.014954 -0.050000 0.050014 
-0.024954 -0.050000 0.050023 
-0.034954 -0.050000 0.050032 
-0.044954 -0.050000 0.050041 
-0.054954 -0.050000 0.050050 
0.065046 -0.040000 0.049940 
0.055046 -0.040000 0.049950 
0.045046 -0.040000 0.049959 
0.035046 -0.040000 0.049968 
0.025046 -0.040000 0.049977 
0.015046 -0.040000 0.049986 
0.005046 -0.040000 0.049995 
-0.004954 -0.040000 0.050005 
-0.014954 -0.040000 0.050014 
-0.024954 -0.040000 0.050023 
-0.034954 -0.040000 0.050032 
-0.044954 -0.040000 0.050041 
-0.054954 -0.040000 0.050050 
-0.064954 -0.040000 0.050059 
0.065046 -0.030000 0.049940 
0.055046 -0.030000 0.049950 
0.045046 -0.030000 0.049959 
0.035046 -0.030000 0.049968 
0.025046 -0.030000 0.049977 
0.015046 -0.030000 0.049986 
0.005046 -0.030000 0.049995 
-0.004954 -0.030000 0.050005 
-0.014954 -0.030000 0.050014 
-0.024954 -0.030000 0.050023 
-0.034954 -0.030000 0.050032 
-0.044954 -0.030000 0.050041 
-0.054954 -0.030000 0.050050 
-0.064954 -0.030000 0.050059 
0.075046 -0.020000 0.049931 
0.065046 -0.020000 0.049940 
0.055046 -0.020000 0.049950 
0.045046 -0.020000 0.049959 
0.035046 -0.020000 0.049968 
0.025046 -0.020000 0.049977 
0.015046 -0.020000 0.049986 
0.005046 -0.020000 0.049995 
-0.004954 -0.020000 0.050005 
-0.014954 -0.020000 0.050014 
-0.024954 -0.020000 0.050023 
-0.034954 -0.020000 0.050032 
-0.044954 -0.020000 0.050041 
-0.054954 -0.020000 0.050050 
-0.064954 -0.020000 0.050059 
-0.074954 -0.020000 0.050069 
0.075046 -0.010000 0.049931 
0.065046 -0.010000 0.049940 
0.055046 -0.010000 0.049950 
0.045046 -0.010000 0.049959 
0.035046 -0.010000 0.049968 
0.025046 -0.010000 0.049977 
0.015046 -0.010000 0.049986 
0.005046 -0.010000 0.049995 
-0.004954 -0.010000 0.050005 
-0.014954 -0.010000 0.050014 
-0.024954 -0.010000 0.050023 
-0.034954 -0.010000 0.050032 
-0.044954 -0.010000 0.050041 
-0.054954 -0.010000 0.050050 
-0.064954 -0.010000 0.050059 
-0.074954 -0.010000 0.050069 
0.075046 -0.000000 0.049931 
0.065046 -0.000000 0.049940 
0.055046 -0.000000 0.049950 
0.045046 -0.000000 0.049959 
0.035046 -0.000000 0.049968 
0.025046 -0.000000 0.049977 
0.015046 -0.000000 0.049986 
0.005046 -0.000000 0.049995 
-0.004954 -0.000000 0.050005 
-0.014954 -0.000000 0.050014 
-0.024954 -0.000000 0.050023 
-0.034954 -0.000000 0.050032 
-0.044954 -0.000000 0.050041 
-0.054954 -0.000000 0.050050 
-0.064954 -0.000000 0.050059 
-0.074954 -0.000000 0.050069 
0.075046 0.010000 0.049931 
0.065046 0.010000 0.049940 
0.055046 0.010000 0.049950 
0.045046 0.010000 0.049959 
0.035046 0.010000 0.049968 
0.025046 0.010000 0.049977 
0.015046 0.010000 0.049986 
0.005046 0.010000 0.049995 
-0.004954 0.010000 0.050005 
-0.014954 0.010000 0.050014 
-0.024954 0.010000 0.050023 
-0.034954 0.010000 0.050032 
-0.044954 0.010000 0.050041 
-0.054954 0.010000 0.050050 
-0.064954 0.010000 0.050059 
-0.074954 0.010000 0.050069 
0.075046 0.020000 0.049931 
0.065046 0.020000 0.049940 
0.055046 0.020000 0.049950 
0.045046 0.020000 0.049959 
0.035046 0.020000 0.049968 
0.025046 0.020000 0.049977 
0.015046 0.020000 0.049986 
0.005046 0.020000 0.049995 
-0.004954 0.020000 0.050005 
-0.014954 0.020000 0.050014 
-0.024954 0.020000 0.050023 
-0.034954 0.020000 0.050032 
-0.044954 0.020000 0.050041 
-0.054954 0.020000 0.050050 
-0.064954 0.020000 0.050059 
-0.074954 0.020000 0.050069 
0.065046 0.030000 0.049940 
0.055046 0.030000 0.049950 
0.045046 0.030000 0.049959 
0.035046 0.030000 0.049968 
0.025046 0.030000 0.049977 
0.015046 0.030000 0.049986 
0.005046 0.030000 0.049995 
-0.004954 0.030000 0.050005 
-0.014954 0.030000 0.050014 
-0.024954 0.030000 0.050023 
-0.034954 0.030000 0.050032 
-0.044954 0.030000 0.050041 
-0.054954 0.030000 0.050050 
-0.064954 0.030000 0.050059 
0.065046 0.040000 0.049940 
0.055046 0.040000 0.049950 
0.045046 0.040000 0.049959 
0.035046 0.040000 0.049968 
0.025046 0.040000 0.049977 
0.015046 0.040000 0.049986 
0.005046 0.040000 0.049995 
-0.004954 0.040000 0.050005 
-0.014954 0.040000 0.050014 
-0.024954 0.040000 0.050023 
-0.034954 0.040000 0.050032 
-0.044954 0.040000 0.050041 
-0.054954 0.040000 0.050050 
-0.064954 0.040000 0.050059 
0.055046 0.050000 0.049950 
0.045046 0.050000 0.049959 
0.035046 0.050000 0.049968 
0.025046 0.050000 0.049977 
0.015046 0.050000 0.049986 
0.005046 0.050000 0.049995 
-0.004954 0.050000 0.050005 
-0.014954 0.050000 0.050014 
-0.024954 0.050000 0.050023 
-0.034954 0.050000 0.050032 
-0.044954 0.050000 0.050041 
-0.054954 0.050000 0.050050 
0.045046 0.060000 0.049959 
0.035046 0.060000 0.049968 
0.025046 0.060000 0.049977 
0.015046 0.060000 0.049986 
0.005046 0.060000 0.049995 
-0.004954 0.060000 0.050005 
-0.014954 0.060000 0.050014 
-0.024954 0.060000 0.050023 
-0.034954 0.060000 0.050032 
-0.044954 0.060000 0.050041 
0.025046 0.070000 0.049977 
0.015046 0.070000 0.049986 
0.005046 0.070000 0.049995 
-0.004954 0.070000 0.050005 
-0.014954 0.070000 0.050014 
-0.024954 0.070000 0.050023 
0.015037 -0.110000 0.039986 
0.005037 -0.110000 0.039995 
-0.004963 -0.110000 0.040005 
-0.014963 -0.110000 0.040014 
0.035037 -0.100000 0.039968 
0.025037 -0.100000 0.039977 
0.015037 -0.100000 0.039986 
0.005037 -0.100000 0.039995 
-0.004963 -0.100000 0.040005 
-0.014963 -0.100000 0.040014 
-0.024963 -0.100000 0.040023 
-0.034963 -0.100000 0.040032 
0.045037 -0.090000 0.039959 
0.035037 -0.090000 0.039968 
0.025037 -0.090000 0.039977 
0.015037 -0.090000 0.039986 
0.005037 -0.090000 0.039995 
-0.004963 -0.090000 0.040005 
-0.014963 -0.090000 0.040014 
-0.024963 -0.090000 0.040023 
-0.034963 -0.090000 0.040032 
-0.044963 -0.090000 0.040041 
0.055037 -0.080000 0.039950 
0.045037 -0.080000 0.039959 
0.035037 -0.080000 0.039968 
0.025037 -0.080000 0.039977 
0.015037 -0.080000 0.039986 
0.005037 -0.080000 0.039995 
-0.004963 -0.080000 0.040005 
-0.014963 -0.080000 0.040014 
-0.024963 -0.080000 0.040023 
-0.034963 -0.080000 0.040032 
-0.044963 -0.080000 0.040041 
-0.054963 -0.080000 0.040050 
0.055037 -0.070000 0.039950 
0.045037 -0.070000 0.039959 
0.035037 -0.070000 0.039968 
0.025037 -0.070000 0.039977 
0.015037 -0.070000 0.039986 
0.005037 -0.070000 0.039995 
-0.004963 -0.070000 0.040005 
-0.014963 -0.070000 0.040014 
-0.024963 -0.070000 0.040023 
-0.034963 -0.070000 0.040032 
-0.044963 -0.070000 0.040041 
-0.054963 -0.070000 0.040050 
0.055037 -0.060000 0.039950 
0.045037 -0.060000 0.039959 
0.035037 -0.060000 0.039968 
0.025037 -0.060000 0.039977 
0.015037 -0.060000 0.039986 
0.005037 -0.060000 0.039995 
-0.004963 -0.060000 0.040005 
-0.014963 -0.060000 0.040014 
-0.024963 -0.060000 0.040023 
-0.034963 -0.060000 0.040032 
-0.044963 -0.060000 0.040041 
-0.054963 -0.060000 0.040050 
0.065037 -0.050000 0.039940 
0.055037 -0.050000 0.039950 
0.045037 -0.050000 0.039959 
0.035037 -0.050000 0.039968 
0.025037 -0.050000 0.039977 
0.015037 -0.050000 0.039986 
0.005037 -0.050000 0.039995 
-0.004963 -0.050000 0.040005 
-0.014963 -0.050000 0.040014 
-0.024963 -0.050000 0.040023 
-0.034963 -0.050000 0.040032 
-0.044963 -0.050000 0.040041 
-0.054963 -0.050000 0.040050 
-0.064963 -0.050000 0.040059 
0.065037 -0.040000 0.039940 
0.055037 -0.040000 0.039950 
0.045037 -0.040000 0.039959 
0.035037 -0.040000 0.039968 
0.025037 -0.040000 0.039977 
0.015037 -0.040000 0.039986 
0.005037 -0.040000 0.039995 
-0.004963 -0.040000 0.040005 
-0.014963 -0.040000 0.040014 
-0.024963 -0.040000 0.040023 
-0.034963 -0.040000 0.040032 
-0.044963 -0.040000 0.040041 
-0.054963 -0.040000 0.040050 
-0.064963 -0.040000 0.040059 
0.075037 -0.030000 0.039931 
0.065037 -0.030000 0.039940 
0.055037 -0.030000 0.039950 
0.045037 -0.030000 0.039959 
0.035037 -0.030000 0.039968 
0.025037 -0.030000 0.039977 
0.015037 -0.030000 0.039986 
0.005037 -0.030000 0.039995 
-0.004963 -0.030000 0.040005 
-0.014963 -0.030000 0.040014 
-0.024963 -0.030000 0.040023 
-0.034963 -0.030000 0.040032 
-0.044963 -0.030000 0.040041 
-0.054963 -0.030000 0.040050 
-0.064963 -0.030000 0.040059 
-0.074963 -0.030000 0.040069 
0.075037 -0.020000 0.039931 
0.065037 -0.020000 0.039940 
0.055037 -0.020000 0.039950 
0.045037 -0.020000 0.039959 
0.035037 -0.020000 0.039968 
0.025037 -0.020000 0.039977 
0.015037 -0.020000 0.039986 
0.005037 -0.020000 0.039995 
-0.004963 -0.020000 0.040005 
-0.014963 -0.020000 0.040014 
-0.024963 -0.020000 0.040023 
-0.034963 -0.020000 0.040032 
-0.044963 -0.020000 0.040041 
-0.054963 -0.020000 0.040050 
-0.064963 -0.020000 0.040059 
-0.074963 -0.020000 0.040069 
0.075037 -0.010000 0.039931 
0.065037 -0.010000 0.039940 
0.055037 -0.010000 0.039950 
0.045037 -0.010000 0.039959 
0.035037 -0.010000 0.039968 
0.025037 -0.010000 0.039977 
0.015037 -0.010000 0.039986 
0.005037 -0.010000 0.039995 
-0.004963 -0.010000 0.040005 
-0.014963 -0.010000 0.040014 
-0.024963 -0.010000 0.040023 
-0.034963 -0.010000 0.040032 
-0.044963 -0.010000 0.040041 
-0.054963 -0.010000 0.040050 
-0.064963 -0.010000 0.040059 
-0.074963 -0.010000 0.040069 
0.075037 -0.000000 0.039931 
0.065037 -0.000000 0.039940 
0.055037 -0.000000 0.039950 
0.045037 -0.000000 0.039959 
0.035037 -0.000000 0.039968 
0.025037 -0.000000 0.039977 
0.015037 -0.000000 0.039986 
0.005037 -0.000000 0.039995 
-0.004963 -0.000000 0.040005 
-0.014963 -0.000000 0.040014 
-0.024963 -0.000000 0.040023 
-0.034963 -0.000000 0.040032 
-0.044963 -0.000000 0.040041 
-0.054963 -0.000000 0.040050 
-0.064963 -0.000000 0.040059 
-0.074963 -0.000000 0.040069 
0.075037 0.010000 0.039931 
0.065037 0.010000 0.039940 
0.055037 0.010000 0.039950 
0.045037 0.010000 0.039959 
0.035037 0.010000 0.039968 
0.025037 0.010000 0.039977 
0.015037 0.010000 0.039986 
0.005037 0.010000 0.039995 
-0.004963 0.010000 0.040005 
-0.014963 0.010000 0.040014 
-0.024963 0.010000 0.040023 
-0.034963 0.010000 0.040032 
-0.044963 0.010000 0.040041 
-0.054963 0.010000 0.040050 
-0.064963 0.010000 0.040059 
-0.074963 0.010000 0.040069 
0.075037 0.020000 0.039931 
0.065037 0.020000 0.039940 
0.055037 0.020000 0.039950 
0.045037 0.020000 0.039959 
0.035037 0.020000 0.039968 
0.025037 0.020000 0.039977 
0.015037 0.020000 0.039986 
0.005037 0.020000 0.039995 
-0.004963 0.020000 0.040005 
-0.014963 0.020000 0.040014 
-0.024963 0.020000 0.040023 
-0.034963 0.020000 0.040032 
-0.044963 0.020000 0.040041 
-0.054963 0.020000 0.040050 
-0.064963 0.020000 0.040059 
-0.074963 0.020000 0.040069 
0.075037 0.030000 0.039931 
0.065037 0.030000 0.039940 
0.055037 0.030000 0.039950 
0.045037 0.030000 0.039959 
0.035037 0.030000 0.039968 
0.025037 0.030000 0.039977 
0.015037 0.030000 0.039986 
0.005037 0.030000 0.039995 
-0.004963 0.030000 0.040005 
-0.014963 0.030000 0.040014 
-0.024963 0.030000 0.040023 
-0.034963 0.030000 0.040032 
-0.044963 0.030000 0.040041 
-0.054963 0.030000 0.040050 
-0.064963 0.030000 0.040059 
-0.074963 0.030000 0.040069 
0.065037 0.040000 0.039940 
0.055037 0.040000 0.039950 
0.045037 0.040000 0.039959 
0.035037 0.040000 0.039968 
0.025037 0.040000 0.039977 
0.015037 0.040000 0.039986 
0.005037 0.040000 0.039995 
-0.004963 0.040000 0.040005 
-0.014963 0.040000 0.040014 
-0.024963 0.040000 0.040023 
-0.034963 0.040000 0.040032 
-0.044963 0.040000 0.040041 
-0.054963 0.040000 0.040050 
-0.064963 0.040000 0.040059 
0.055037 0.050000 0.039950 
0.045037 0.050000 0.039959 
0.035037 0.050000 0.039968 
0.025037 0.050000 0.039977 
0.015037 0.050000 0.039986 
0.005037 0.050000 0.039995 
-0.004963 0.050000 0.040005 
-0.014963 0.050000 0.040014 
-0.024963 0.050000 0.040023 
-0.034963 0.050000 0.040032 
-0.044963 0.050000 0.040041 
-0.054963 0.050000 0.040050 
0.045037 0.060000 0.039959 
0.035037 0.060000 0.039968 
0.025037 0.060000 0.039977 
0.015037 0.060000 0.039986 
0.005037 0.060000 0.039995 
-0.004963 0.060000 0.040005 
-0.014963 0.060000 0.040014 
-0.024963 0.060000 0.040023 
-0.034963 0.060000 0.040032 
-0.044963 0.060000 0.040041 
0.035037 0.070000 0.039968 
0.025037 0.070000 0.039977 
0.015037 0.070000 0.039986 
0.005037 0.070000 0.039995 
-0.004963 0.070000 0.040005 
-0.014963 0.070000 0.040014 
-0.024963 0.070000 0.040023 
-0.034963 0.070000 0.040032 
0.035028 -0.110000 0.029968 
0.025028 -0.110000 0.029977 
0.015028 -0.110000 0.029986 
0.005028 -0.110000 0.029995 
-0.004972 -0.110000 0.030005 
-0.014972 -0.110000 0.030014 
-0.024972 -0.110000 0.030023 
-0.034972 -0.110000 0.030032 
0.045028 -0.100000 0.029959 
0.035028 -0.100000 0.029968 
0.025028 -0.100000 0.029977 
0.015028 -0.100000 0.029986 
0.005028 -0.100000 0.029995 
-0.004972 -0.100000 0.030005 
-0.014972 -0.100000 0.030014 
-0.024972 -0.100000 0.030023 
-0.034972 -0.100000 0.030032 
-0.044972 -0.100000 0.030041 
0.055028 -0.090000 0.029950 
0.045028 -0.090000 0.029959 
0.035028 -0.090000 0.029968 
0.025028 -0.090000 0.029977 
0.015028 -0.090000 0.029986 
0.005028 -0.090000 0.029995 
-0.004972 -0.090000 0.030005 
-0.014972 -0.090000 0.030014 
-0.024972 -0.090000 0.030023 
-0.034972 -0.090000 0.030032 
-0.044972 -0.090000 0.030041 
-0.054972 -0.090000 0.030050 
0.055028 -0.080000 0.029950 
0.045028 -0.080000 0.029959 
0.035028 -0.080000 0.029968 
0.025028 -0.080000 0.029977 
0.015028 -0.080000 0.029986 
0.005028 -0.080000 0.029995 
-0.004972 -0.080000 0.030005 
-0.014972 -0.080000 0.030014 
-0.024972 -0.080000 0.030023 
-0.034972 -0.080000 0.030032 
-0.044972 -0.080000 0.030041 
-0.054972 -0.080000 0.030050 
0.055028 -0.070000 0.029950 
0.045028 -0.070000 0.029959 
0.035028 -0.070000 0.029968 
0.025028 -0.070000 0.029977 
0.015028 -0.070000 0.029986 
0.005028 -0.070000 0.029995 
-0.004972 -0.070000 0.030005 
-0.014972 -0.070000 0.030014 
-0.024972 -0.070000 0.030023 
-0.034972 -0.070000 0.030032 
-0.044972 -0.070000 0.030041 
-0.054972 -0.070000 0.030050 
0.065028 -0.060000 0.029940 
0.055028 -0.060000 0.029950 
0.045028 -0.060000 0.029959 
0.035028 -0.060000 0.029968 
0.025028 -0.060000 0.029977 
0.015028 -0.060000 0.029986 
0.005028 -0.060000 0.029995 
-0.004972 -0.060000 0.030005 
-0.014972 -0.060000 0.030014 
-0.024972 -0.060000 0.030023 
-0.034972 -0.060000 0.030032 
-0.044972 -0.060000 0.030041 
-0.054972 -0.060000 0.030050 
-0.064972 -0.060000 0.030059 
0.065028 -0.050000 0.029940 
0.055028 -0.050000 0.029950 
0.045028 -0.050000 0.029959 
0.035028 -0.050000 0.029968 
0.025028 -0.050000 0.029977 
0.015028 -0.050000 0.029986 
0.005028 -0.050000 0.029995 
-0.004972 -0.050000 0.030005 
-0.014972 -0.050000 0.030014 
-0.024972 -0.050000 0.030023 
-0.034972 -0.050000 0.030032 
-0.044972 -0.050000 0.030041 
-0.054972 -0.050000 0.030050 
-0.064972 -0.050000 0.030059 
0.075028 -0.040000 0.029931 
0.065028 -0.040000 0.029940 
0.055028 -0.040000 0.029950 
0.045028 -0.040000 0.029959 
0.035028 -0.040000 0.029968 
0.025028 -0.040000 0.029977 
0.015028 -0.040000 0.029986 
0.005028 -0.040000 0.029995 
-0.004972 -0.040000 0.030005 
-0.014972 -0.040000 0.030014 
-0.024972 -0.040000 0.030023 
-0.034972 -0.040000 0.030032 
-0.044972 -0.040000 0.030041 
-0.054972 -0.040000 0.030050 
-0.064972 -0.040000 0.030059 
-0.074972 -0.040000 0.030069 
0.075028 -0.030000 0.029931 
0.065028 -0.030000 0.029940 
0.055028 -0.030000 0.029950 
0.045028 -0.030000 0.029959 
0.035028 -0.030000 0.029968 
0.025028 -0.030000 0.029977 
0.015028 -0.030000 0.029986 
0.005028 -0.030000 0.029995 
-0.004972 -0.030000 0.030005 
-0.014972 -0.030000 0.030014 
-0.024972 -0.030000 0.030023 
-0.034972 -0.030000 0.030032 
-0.044972 -0.030000 0.030041 
-0.054972 -0.030000 0.030050 
-0.064972 -0.030000 0.030059 
-0.074972 -0.030000 0.030069 
0.075028 -0.020000 0.029931 
0.065028 -0.020000 0.029940 
0.055028 -0.020000 0.029950 
0.045028 -0.020000 0.029959 
0.035028 -0.020000 0.029968 
0.025028 -0.020000 0.029977 
0.015028 -0.020000 0.029986 
0.005028 -0.020000 0.029995 
-0.004972 -0.020000 0.030005 
-0.014972 -0.020000 0.030014 
-0.024972 -0.020000 0.030023 
-0.034972 -0.020000 0.030032 
-0.044972 -0.020000 0.030041 
-0.054972 -0.020000 0.030050 
-0.064972 -0.020000 0.030059 
-0.074972 -0.020000 0.030069 
0.075028 -0.010000 0.029931 
0.065028 -0.010000 0.029940 
0.055028 -0.010000 0.029950 
0.045028 -0.010000 0.029959 
0.035028 -0.010000 0.029968 
0.025028 -0.010000 0.029977 
0.015028 -0.010000 0.029986 
0.005028 -0.010000 0.029995 
-0.004972 -0.010000 0.030005 
-0.014972 -0.010000 0.030014 
-0.024972 -0.010000 0.030023 
-0.034972 -0.010000 0.030032 
-0.044972 -0.010000 0.030041 
-0.054972 -0.010000 0.030050 
-0.064972 -0.010000 0.030059 
-0.074972 -0.010000 0.030069 
0.085028 -0.000000 0.029922 
0.075028 -0.000000 0.029931 
0.065028 -0.000000 0.029940 
0.055028 -0.000000 0.029950 
0.045028 -0.000000 0.029959 
0.035028 -0.000000 0.029968 
0.025028 -0.000000 0.029977 
0.015028 -0.000000 0.029986 
0.005028 -0.000000 0.029995 
-0.004972 -0.000000 0.030005 
-0.014972 -0.000000 0.030014 
-0.024972 -0.000000 0.030023 
-0.034972 -0.000000 0.030032 
-0.044972 -0.000000 0.030041 
-0.054972 -0.000000 0.030050 
-0.064972 -0.000000 0.030059 
-0.074972 -0.000000 0.030069 
-0.084972 -0.000000 0.030078 
0.075028 0.010000 0.029931 
0.065028 0.010000 0.029940 
0.055028 0.010000 0.029950 
0.045028 0.010000 0.029959 
0.035028 0.010000 0.029968 
0.025028 0.010000 0.029977 
0.015028 0.010000 0.029986 
0.005028 0.010000 0.029995 
-0.004972 0.010000 0.030005 
-0.014972 0.010000 0.030014 
-0.024972 0.010000 0.030023 
-0.034972 0.010000 0.030032 
-0.044972 0.010000 0.030041 
-0.054972 0.010000 0.030050 
-0.064972 0.010000 0.030059 
-0.074972 0.010000 0.030069 
0.075028 0.020000 0.029931 
0.065028 0.020000 0.029940 
0.055028 0.020000 0.029950 
0.045028 0.020000 0.029959 
0.035028 0.020000 0.029968 
0.025028 0.020000 0.029977 
0.015028 0.020000 0.029986 
0.005028 0.020000 0.029995 
-0.004972 0.020000 0.030005 
-0.014972 0.020000 0.030014 
-0.024972 0.020000 0.030023 
-0.034972 0.020000 0.030032 
-0.044972 0.020000 0.030041 
-0.054972 0.020000 0.030050 
-0.064972 0.020000 0.030059 
-0.074972 0.020000 0.030069 
0.075028 0.030000 0.029931 
0.065028 0.030000 0.029940 
0.055028 0.030000 0.029950 
0.045028 0.030000 0.029959 
0.035028 0.030000 0.029968 
0.025028 0.030000 0.029977 
0.015028 0.030000 0.029986 
0.005028 0.030000 0.029995 
-0.004972 0.030000 0.030005 
-0.014972 0.030000 0.030014 
-0.024972 0.030000 0.030023 
-0.034972 0.030000 0.030032 
-0.044972 0.030000 0.030041 
-0.054972 0.030000 0.030050 
-0.064972 0.030000 0.030059 
-0.074972 0.030000 0.030069 
0.065028 0.040000 0.029940 
0.055028 0.040000 0.029950 
0.045028 0.040000 0.029959 
0.035028 0.040000 0.029968 
0.025028 0.040000 0.029977 
0.015028 0.040000 0.029986 
0.005028 0.040000 0.029995 
-0.004972 0.040000 0.030005 
-0.014972 0.040000 0.030014 
-0.024972 0.040000 0.030023 
-0.034972 0.040000 0.030032 
-0.044972 0.040000 0.030041 
-0.054972 0.040000 0.030050 
-0.064972 0.040000 0.030059 
0.065028 0.050000 0.029940 
0.055028 0.050000 0.029950 
0.045028 0.050000 0.029959 
0.035028 0.050000 0.029968 
0.025028 0.050000 0.029977 
0.015028 0.050000 0.029986 
0.005028 0.050000 0.029995 
-0.004972 0.050000 0.030005 
-0.014972 0.050000 0.030014 
-0.024972 0.050000 0.030023 
-0.034972 0.050000 0.030032 
-0.044972 0.050000 0.030041 
-0.054972 0.050000 0.030050 
-0.064972 0.050000 0.030059 
0.055028 0.060000 0.029950 
0.045028 0.060000 0.029959 
0.035028 0.060000 0.029968 
0.025028 0.060000 0.029977 
0.015028 0.060000 0.029986 
0.005028 0.060000 0.029995 
-0.004972 0.060000 0.030005 
-0.014972 0.060000 0.030014 
-0.024972 0.060000 0.030023 
-0.034972 0.060000 0.030032 
-0.044972 0.060000 0.030041 
-0.054972 0.060000 0.030050 
0.035028 0.070000 0.029968 
0.025028 0.070000 0.029977 
0.015028 0.070000 0.029986 
0.005028 0.070000 0.029995 
-0.004972 0.070000 0.030005 
-0.014972 0.070000 0.030014 
-0.024972 0.070000 0.030023 
-0.034972 0.070000 0.030032 
0.005028 0.080000 0.029995 
-0.004972 0.080000 0.030005 
0.035019 -0.110000 0.019968 
0.025019 -0.110000 0.019977 
0.015019 -0.110000 0.019986 
0.005019 -0.110000 0.019995 
-0.004981 -0.110000 0.020005 
-0.014981 -0.110000 0.020014 
-0.024981 -0.110000 0.020023 
-0.034981 -0.110000 0.020032 
0.045019 -0.100000 0.019959 
0.035019 -0.100000 0.019968 
0.025019 -0.100000 0.019977 
0.015019 -0.100000 0.019986 
0.005019 -0.100000 0.019995 
-0.004981 -0.100000 0.020005 
-0.014981 -0.100000 0.020014 
-0.024981 -0.100000 0.020023 
-0.034981 -0.100000 0.020032 
-0.044981 -0.100000 0.020041 
0.055019 -0.090000 0.019950 
0.045019 -0.090000 0.019959 
0.035019 -0.090000 0.019968 
0.025019 -0.090000 0.019977 
0.015019 -0.090000 0.019986 
0.005019 -0.090000 0.019995 
-0.004981 -0.090000 0.020005 
-0.014981 -0.090000 0.020014 
-0.024981 -0.090000 0.020023 
-0.034981 -0.090000 0.020032 
-0.044981 -0.090000 0.020041 
-0.054981 -0.090000 0.020050 
0.055019 -0.080000 0.019950 
0.045019 -0.080000 0.019959 
0.035019 -0.080000 0.019968 
0.025019 -0.080000 0.019977 
0.015019 -0.080000 0.019986 
0.005019 -0.080000 0.019995 
-0.004981 -0.080000 0.020005 
-0.014981 -0.080000 0.020014 
-0.024981 -0.080000 0.020023 
-0.034981 -0.080000 0.020032 
-0.044981 -0.080000 0.020041 
-0.054981 -0.080000 0.020050 
0.065019 -0.070000 0.019941 
0.055019 -0.070000 0.019950 
0.045019 -0.070000 0.019959 
0.035019 -0.070000 0.019968 
0.025019 -0.070000 0.019977 
0.015019 -0.070000 0.019986 
0.005019 -0.070000 0.019995 
-0.004981 -0.070000 0.020005 
-0.014981 -0.070000 0.020014 
-0.024981 -0.070000 0.020023 
-0.034981 -0.070000 0.020032 
-0.044981 -0.070000 0.020041 
-0.054981 -0.070000 0.020050 
-0.064981 -0.070000 0.020059 
0.065019 -0.060000 0.019941 
0.055019 -0.060000 0.019950 
0.045019 -0.060000 0.019959 
0.035019 -0.060000 0.019968 
0.025019 -0.060000 0.019977 
0.015019 -0.060000 0.019986 
0.005019 -0.060000 0.019995 
-0.004981 -0.060000 0.020005 
-0.014981 -0.060000 0.020014 
-0.024981 -0.060000 0.020023 
-0.034981 -0.060000 0.020032 
-0.044981 -0.060000 0.020041 
-0.054981 -0.060000 0.020050 
-0.064981 -0.060000 0.020059 
0.075019 -0.050000 0.019931 
0.065019 -0.050000 0.019941 
0.055019 -0.050000 0.019950 
0.045019 -0.050000 0.019959 
0.035019 -0.050000 0.019968 
0.025019 -0.050000 0.019977 
0.015019 -0.050000 0.019986 
0.005019 -0.050000 0.019995 
-0.004981 -0.050000 0.020005 
-0.014981 -0.050000 0.020014 
-0.024981 -0.050000 0.020023 
-0.034981 -0.050000 0.020032 
-0.044981 -0.050000 0.020041 
-0.054981 -0.050000 0.020050 
-0.064981 -0.050000 0.020059 
-0.074981 -0.050000 0.020069 
0.075019 -0.040000 0.019931 
0.065019 -0.040000 0.019941 
0.055019 -0.040000 0.019950 
0.045019 -0.040000 0.019959 
0.035019 -0.040000 0.019968 
0.025019 -0.040000 0.019977 
0.015019 -0.040000 0.019986 
0.005019 -0.040000 0.019995 
-0.004981 -0.040000 0.020005 
-0.014981 -0.040000 0.020014 
-0.024981 -0.040000 0.020023 
-0.034981 -0.040000 0.020032 
-0.044981 -0.040000 0.020041 
-0.054981 -0.040000 0.020050 
-0.064981 -0.040000 0.020059 
-0.074981 -0.040000 0.020069 
0.075019 -0.030000 0.019931 
0.065019 -0.030000 0.019941 
0.055019 -0.030000 0.019950 
0.045019 -0.030000 0.019959 
0.035019 -0.030000 0.019968 
0.025019 -0.030000 0.019977 
0.015019 -0.030000 0.019986 
0.005019 -0.030000 0.019995 
-0.004981 -0.030000 0.020005 
-0.014981 -0.030000 0.020014 
-0.024981 -0.030000 0.020023 
-0.034981 -0.030000 0.020032 
-0.044981 -0.030000 0.020041 
-0.054981 -0.030000 0.020050 
-0.064981 -0.030000 0.020059 
-0.074981 -0.030000 0.020069 
0.085019 -0.020000 0.019922 
0.075019 -0.020000 0.019931 
0.065019 -0.020000 0.019941 
0.055019 -0.020000 0.019950 
0.045019 -0.020000 0.019959 
0.035019 -0.020000 0.019968 
0.025019 -0.020000 0.019977 
0.015019 -0.020000 0.019986 
0.005019 -0.020000 0.019995 
-0.004981 -0.020000 0.020005 
-0.014981 -0.020000 0.020014 
-0.024981 -0.020000 0.020023 
-0.034981 -0.020000 0.020032 
-0.044981 -0.020000 0.020041 
-0.054981 -0.020000 0.020050 
-0.064981 -0.020000 0.020059 
-0.074981 -0.020000 0.020069 
-0.084981 -0.020000 0.020078 
0.085019 -0.010000 0.019922 
0.075019 -0.010000 0.019931 
0.065019 -0.010000 0.019941 
0.055019 -0.010000 0.019950 
0.045019 -0.010000 0.019959 
0.035019 -0.010000 0.019968 
0.025019 -0.010000 0.019977 
0.015019 -0.010000 0.019986 
0.005019 -0.010000 0.019995 
-0.004981 -0.010000 0.020005 
-0.014981 -0.010000 0.020014 
-0.024981 -0.010000 0.020023 
-0.034981 -0.010000 0.020032 
-0.044981 -0.010000 0.020041 
-0.054981 -0.010000 0.020050 
-0.064981 -0.010000 0.020059 
-0.074981 -0.010000 0.020069 
-0.084981 -0.010000 0.020078 
0.085019 -0.000000 0.019922 
0.075019 -0.000000 0.019931 
0.065019 -0.000000 0.019941 
0.055019 -0.000000 0.019950 
0.045019 -0.000000 0.019959 
0.035019 -0.000000 0.019968 
0.025019 -0.000000 0.019977 
0.015019 -0.000000 0.019986 
0.005019 -0.000000 0.019995 
-0.004981 -0.000000 0.020005 
-0.014981 -0.000000 0.020014 
-0.024981 -0.000000 0.020023 
-0.034981 -0.000000 0.020032 
-0.044981 -0.000000 0.020041 
-0.054981 -0.000000 0.020050 
-0.064981 -0.000000 0.020059 
-0.074981 -0.000000 0.020069 
-0.084981 -0.000000 0.020078 
0.085019 0.010000 0.019922 
0.075019 0.010000 0.019931 
0.065019 0.010000 0.019941 
0.055019 0.010000 0.019950 
0.045019 0.010000 0.019959 
0.035019 0.010000 0.019968 
0.025019 0.010000 0.019977 
0.015019 0.010000 0.019986 
0.005019 0.010000 0.019995 
-0.004981 0.010000 0.020005 
-0.014981 0.010000 0.020014 
-0.024981 0.010000 0.020023 
-0.034981 0.010000 0.020032 
-0.044981 0.010000 0.020041 
-0.054981 0.010000 0.020050 
-0.064981 0.010000 0.020059 
-0.074981 0.010000 0.020069 
-0.084981 0.010000 0.020078 
0.085019 0.020000 0.019922 
0.075019 0.020000 0.019931 
0.065019 0.020000 0.019941 
0.055019 0.020000 0.019950 
0.045019 0.020000 0.019959 
0.035019 0.020000 0.019968 
0.025019 0.020000 0.019977 
0.015019 0.020000 0.019986 
0.005019 0.020000 0.019995 
-0.004981 0.020000 0.020005 
-0.014981 0.020000 0.020014 
-0.024981 0.020000 0.020023 
-0.034981 0.020000 0.020032 
-0.044981 0.020000 0.020041 
-0.054981 0.020000 0.020050 
-0.064981 0.020000 0.020059 
-0.074981 0.020000 0.020069 
-0.084981 0.020000 0.020078 
0.075019 0.030000 0.019931 
0.065019 0.030000 0.019941 
0.055019 0.030000 0.019950 
0.045019 0.030000 0.019959 
0.035019 0.030000 0.019968 
0.025019 0.030000 0.019977 
0.015019 0.030000 0.019986 
0.005019 0.030000 0.019995 
-0.004981 0.030000 0.020005 
-0.014981 0.030000 0.020014 
-0.024981 0.030000 0.020023 
-0.034981 0.030000 0.020032 
-0.044981 0.030000 0.020041 
-0.054981 0.030000 0.020050 
-0.064981 0.030000 0.020059 
-0.074981 0.030000 0.020069 
0.075019 0.040000 0.019931 
0.065019 0.040000 0.019941 
0.055019 0.040000 0.019950 
0.045019 0.040000 0.019959 
0.035019 0.040000 0.019968 
0.025019 0.040000 0.019977 
0.015019 0.040000 0.019986 
0.005019 0.040000 0.019995 
-0.004981 0.040000 0.020005 
-0.014981 0.040000 0.020014 
-0.024981 0.040000 0.020023 
-0.034981 0.040000 0.020032 
-0.044981 0.040000 0.020041 
-0.054981 0.040000 0.020050 
-0.064981 0.040000 0.020059 
-0.074981 0.040000 0.020069 
0.065019 0.050000 0.019941 
0.055019 0.050000 0.019950 
0.045019 0.050000 0.019959 
0.035019 0.050000 0.019968 
0.025019 0.050000 0.019977 
0.015019 0.050000 0.019986 
0.005019 0.050000 0.019995 
-0.004981 0.050000 0.020005 
-0.014981 0.050000 0.020014 
-0.024981 0.050000 0.020023 
-0.034981 0.050000 0.020032 
-0.044981 0.050000 0.020041 
-0.054981 0.050000 0.020050 
-0.064981 0.050000 0.020059 
0.055019 0.060000 0.019950 
0.045019 0.060000 0.019959 
0.035019 0.060000 0.019968 
0.025019 0.060000 0.019977 
0.015019 0.060000 0.019986 
0.005019 0.060000 0.019995 
-0.004981 0.060000 0.020005 
-0.014981 0.060000 0.020014 
-0.024981 0.060000 0.020023 
-0.034981 0.060000 0.020032 
-0.044981 0.060000 0.020041 
-0.054981 0.060000 0.020050 
0.045019 0.070000 0.019959 
0.035019 0.070000 0.019968 
0.025019 0.070000 0.019977 
0.015019 0.070000 0.019986 
0.005019 0.070000 0.019995 
-0.004981 0.070000 0.020005 
-0.014981 0.070000 0.020014 
-0.024981 0.070000 0.020023 
-0.034981 0.070000 0.020032 
-0.044981 0.070000 0.020041 
0.025019 0.080000 0.019977 
0.015019 0.080000 0.019986 
0.005019 0.080000 0.019995 
-0.004981 0.080000 0.020005 
-0.014981 0.080000 0.020014 
-0.024981 0.080000 0.020023 
0.045009 -0.110000 0.009959 
0.035009 -0.110000 0.009968 
0.025009 -0.110000 0.009977 
0.015009 -0.110000 0.009986 
0.005009 -0.110000 0.009995 
-0.004991 -0.110000 0.010005 
-0.014990 -0.110000 0.010014 
-0.024990 -0.110000 0.010023 
-0.034990 -0.110000 0.010032 
-0.044990 -0.110000 0.010041 
0.055009 -0.100000 0.009950 
0.045009 -0.100000 0.009959 
0.035009 -0.100000 0.009968 
0.025009 -0.100000 0.009977 
0.015009 -0.100000 0.009986 
0.005009 -0.100000 0.009995 
-0.004991 -0.100000 0.010005 
-0.014990 -0.100000 0.010014 
-0.024990 -0.100000 0.010023 
-0.034990 -0.100000 0.010032 
-0.044990 -0.100000 0.010041 
-0.054990 -0.100000 0.010050 
0.055009 -0.090000 0.009950 
0.045009 -0.090000 0.009959 
0.035009 -0.090000 0.009968 
0.025009 -0.090000 0.009977 
0.015009 -0.090000 0.009986 
0.005009 -0.090000 0.009995 
-0.004991 -0.090000 0.010005 
-0.014990 -0.090000 0.010014 
-0.024990 -0.090000 0.010023 
-0.034990 -0.090000 0.010032 
-0.044990 -0.090000 0.010041 
-0.054990 -0.090000 0.010050 
0.065009 -0.080000 0.009941 
0.055009 -0.080000 0.009950 
0.045009 -0.080000 0.009959 
0.035009 -0.080000 0.009968 
0.025009 -0.080000 0.009977 
0.015009 -0.080000 0.009986 
0.005009 -0.080000 0.009995 
-0.004991 -0.080000 0.010005 
-0.014990 -0.080000 0.010014 
-0.024990 -0.080000 0.010023 
-0.034990 -0.080000 0.010032 
-0.044990 -0.080000 0.010041 
-0.054990 -0.080000 0.010050 
-0.064990 -0.080000 0.010059 
0.065009 -0.070000 0.009941 
0.055009 -0.070000 0.009950 
0.045009 -0.070000 0.009959 
0.035009 -0.070000 0.009968 
0.025009 -0.070000 0.009977 
0.015009 -0.070000 0.009986 
0.005009 -0.070000 0.009995 
-0.004991 -0.070000 0.010005 
-0.014990 -0.070000 0.010014 
-0.024990 -0.070000 0.010023 
-0.034990 -0.070000 0.010032 
-0.044990 -0.070000 0.010041 
-0.054990 -0.070000 0.010050 
-0.064990 -0.070000 0.010059 
0.065009 -0.060000 0.009941 
0.055009 -0.060000 0.009950 
0.045009 -0.060000 0.009959 
0.035009 -0.060000 0.009968 
0.025009 -0.060000 0.009977 
0.015009 -0.060000 0.009986 
0.005009 -0.060000 0.009995 
-0.004991 -0.060000 0.010005 
-0.014990 -0.060000 0.010014 
-0.024990 -0.060000 0.010023 
-0.034990 -0.060000 0.010032 
-0.044990 -0.060000 0.010041 
-0.054990 -0.060000 0.010050 
-0.064990 -0.060000 0.010059 
0.075009 -0.050000 0.009931 
0.065009 -0.050000 0.009941 
0.055009 -0.050000 0.009950 
0.045009 -0.050000 0.009959 
0.035009 -0.050000 0.009968 
0.025009 -0.050000 0.009977 
0.015009 -0.050000 0.009986 
0.005009 -0.050000 0.009995 
-0.004991 -0.050000 0.010005 
-0.014990 -0.050000 0.010014 
-0.024990 -0.050000 0.010023 
-0.034990 -0.050000 0.010032 
-0.044990 -0.050000 0.010041 
-0.054990 -0.050000 0.010050 
-0.064990 -0.050000 0.010059 
-0.074990 -0.050000 0.010069 
0.075009 -0.040000 0.009931 
0.065009 -0.040000 0.009941 
0.055009 -0.040000 0.009950 
0.045009 -0.040000 0.009959 
0.035009 -0.040000 0.009968 
0.025009 -0.040000 0.009977 
0.015009 -0.040000 0.009986 
0.005009 -0.040000 0.009995 
-0.004991 -0.040000 0.010005 
-0.014990 -0.040000 0.010014 
-0.024990 -0.040000 0.010023 
-0.034990 -0.040000 0.010032 
-0.044990 -0.040000 0.010041 
-0.054990 -0.040000 0.010050 
-0.064990 -0.040000 0.010059 
-0.074990 -0.040000 0.010069 
0.075009 -0.030000 0.009931 
0.065009 -0.030000 0.009941 
0.055009 -0.030000 0.009950 
0.045009 -0.030000 0.009959 
0.035009 -0.030000 0.009968 
0.025009 -0.030000 0.009977 
0.015009 -0.030000 0.009986 
0.005009 -0.030000 0.009995 
-0.004991 -0.030000 0.010005 
-0.014990 -0.030000 0.010014 
-0.024990 -0.030000 0.010023 
-0.034990 -0.030000 0.010032 
-0.044990 -0.030000 0.010041 
-0.054990 -0.030000 0.010050 
-0.064990 -0.030000 0.010059 
-0.074990 -0.030000 0.010069 
0.085009 -0.020000 0.009922 
0.075009 -0.020000 0.009931 
0.065009 -0.020000 0.009941 
0.055009 -0.020000 0.009950 
0.045009 -0.020000 0.009959 
0.035009 -0.020000 0.009968 
0.025009 -0.020000 0.009977 
0.015009 -0.020000 0.009986 
0.005009 -0.020000 0.009995 
-0.004991 -0.020000 0.010005 
-0.014990 -0.020000 0.010014 
-0.024990 -0.020000 0.010023 
-0.034990 -0.020000 0.010032 
-0.044990 -0.020000 0.010041 
-0.054990 -0.020000 0.010050 
-0.064990 -0.020000 0.010059 
-0.074990 -0.020000 0.010069 
-0.084990 -0.020000 0.010078 
0.085009 -0.010000 0.009922 
0.075009 -0.010000 0.009931 
0.065009 -0.010000 0.009941 
0.055009 -0.010000 0.009950 
0.045009 -0.010000 0.009959 
0.035009 -0.010000 0.009968 
0.025009 -0.010000 0.009977 
0.015009 -0.010000 0.009986 
0.005009 -0.010000 0.009995 
-0.004991 -0.010000 0.010005 
-0.014990 -0.010000 0.010014 
-0.024990 -0.010000 0.010023 
-0.034990 -0.010000 0.010032 
-0.044990 -0.010000 0.010041 
-0.054990 -0.010000 0.010050 
-0.064990 -0.010000 0.010059 
-0.074990 -0.010000 0.010069 
-0.084990 -0.010000 0.010078 
0.085009 -0.000000 0.009922 
0.075009 -0.000000 0.009931 
0.065009 -0.000000 0.009941 
0.055009 -0.000000 0.009950 
0.045009 -0.000000 0.009959 
0.035009 -0.000000 0.009968 
0.025009 -0.000000 0.009977 
0.015009 -0.000000 0.009986 
0.005009 -0.000000 0.009995 
-0.004991 -0.000000 0.010005 
-0.014990 -0.000000 0.010014 
-0.024990 -0.000000 0.010023 
-0.034990 -0.000000 0.010032 
-0.044990 -0.000000 0.010041 
-0.054990 -0.000000 0.010050 
-0.064990 -0.000000 0.010059 
-0.074990 -0.000000 0.010069 
-0.084990 -0.000000 0.010078 
0.085009 0.010000 0.009922 
0.075009 0.010000 0.009931 
0.065009 0.010000 0.009941 
0.055009 0.010000 0.009950 
0.045009 0.010000 0.009959 
0.035009 0.010000 0.009968 
0.025009 0.010000 0.009977 
0.015009 0.010000 0.009986 
0.005009 0.010000 0.009995 
-0.004991 0.010000 0.010005 
-0.014990 0.010000 0.010014 
-0.024990 0.010000 0.010023 
-0.034990 0.010000 0.010032 
-0.044990 0.010000 0.010041 
-0.054990 0.010000 0.010050 
-0.064990 0.010000 0.010059 
-0.074990 0.010000 0.010069 
-0.084990 0.010000 0.010078 
0.085009 0.020000 0.009922 
0.075009 0.020000 0.009931 
0.065009 0.020000 0.009941 
0.055009 0.020000 0.009950 
0.045009 0.020000 0.009959 
0.035009 0.020000 0.009968 
0.025009 0.020000 0.009977 
0.015009 0.020000 0.009986 
0.005009 0.020000 0.009995 
-0.004991 0.020000 0.010005 
-0.014990 0.020000 0.010014 
-0.024990 0.020000 0.010023 
-0.034990 0.020000 0.010032 
-0.044990 0.020000 0.010041 
-0.054990 0.020000 0.010050 
-0.064990 0.020000 0.010059 
-0.074990 0.020000 0.010069 
-0.084990 0.020000 0.010078 
0.075009 0.030000 0.009931 
0.065009 0.030000 0.009941 
0.055009 0.030000 0.009950 
0.045009 0.030000 0.009959 
0.035009 0.030000 0.009968 
0.025009 0.030000 0.009977 
0.015009 0.030000 0.009986 
0.005009 0.030000 0.009995 
-0.004991 0.030000 0.010005 
-0.014990 0.030000 0.010014 
-0.024990 0.030000 0.010023 
-0.034990 0.030000 0.010032 
-0.044990 0.030000 0.010041 
-0.054990 0.030000 0.010050 
